NCOLS 122
NROWS 58
XLLCORNER -94.8
YLLCORNER -26.45
CELLSIZE 0.5 
NODATA_value -3.4e+38 
-3.4e+38 -3.4e+38 -3.4e+38 -3.4e+38 -3.4e+38 -3.4e+38 -3.4e+38 -3.4e+38 -3.4e+38 -3.4e+38 -3.4e+38 -3.4e+38 -3.4e+38 -3.4e+38 -3.4e+38 -3.4e+38 -3.4e+38 -3.4e+38 -3.4e+38 -3.4e+38 -3.4e+38 -3.4e+38 -3.4e+38 -3.4e+38 -3.4e+38 -3.4e+38 -3.4e+38 -3.4e+38 -3.4e+38 -3.4e+38 -3.4e+38 -3.4e+38 7.11111116409302 40.939998626709 647.539978027344 1535.89001464844 2682.81005859375 2194.65991210938 1398.80004882812 1101.93005371094 509.920013427734 411.730010986328 296.559997558594 322.869995117188 327.339996337891 293.049987792969 280.029998779297 218.410003662109 166.100006103516 142.770004272461 161.399993896484 165 193.240005493164 175.149993896484 205.470001220703 121.440002441406 99.0699996948242 133.330001831055 185.75 251.309997558594 389.619995117188 744.849975585938 806.890014648438 562.909973144531 364.869995117188 245.910003662109 169.309997558594 107.319999694824 195 245.809997558594 244.479995727539 262.850006103516 223.919998168945 258.089996337891 269.630004882812 286.529998779297 324.040008544922 416.809997558594 397.890014648438 368.279998779297 341.179992675781 242.309997558594 221.550003051758 219.389999389648 188.190002441406 243.610000610352 190.199996948242 32.9799995422363 1.125 -3.4e+38 -3.4e+38 -3.4e+38 -3.4e+38 -3.4e+38 -3.4e+38 -3.4e+38 -3.4e+38 -3.4e+38 -3.4e+38 -3.4e+38 -3.4e+38 -3.4e+38 -3.4e+38 -3.4e+38 -3.4e+38 -3.4e+38 -3.4e+38 -3.4e+38 -3.4e+38 -3.4e+38 -3.4e+38 -3.4e+38 -3.4e+38 -3.4e+38 -3.4e+38 -3.4e+38 -3.4e+38 -3.4e+38 -3.4e+38 -3.4e+38 -3.4e+38 -3.4e+38
-3.4e+38 -3.4e+38 -3.4e+38 -3.4e+38 -3.4e+38 -3.4e+38 -3.4e+38 -3.4e+38 -3.4e+38 -3.4e+38 -3.4e+38 -3.4e+38 -3.4e+38 -3.4e+38 -3.4e+38 -3.4e+38 -3.4e+38 -3.4e+38 -3.4e+38 -3.4e+38 -3.4e+38 -3.4e+38 -3.4e+38 -3.4e+38 -3.4e+38 -3.4e+38 -3.4e+38 -3.4e+38 -3.4e+38 -3.4e+38 -3.4e+38 2.84210515022278 34.9113922119141 131.169998168945 1128.98999023438 1613.36999511719 2721.97998046875 1706.82995605469 1018.01000976562 466.410003662109 349.929992675781 286.440002441406 295.059997558594 325.420013427734 314.589996337891 307.049987792969 288.140014648438 201.690002441406 174.169998168945 193.5 179.910003662109 165.720001220703 198.309997558594 211.320007324219 191.490005493164 119.580001831055 98.4700012207031 202.009994506836 369.75 345.570007324219 477.040008544922 467.839996337891 290.660003662109 428.820007324219 302.489990234375 308.450012207031 130.899993896484 90.5800018310547 183.520004272461 266.760009765625 333.619995117188 441.140014648438 342.790008544922 346.899993896484 358.559997558594 293.100006103516 318.239990234375 315.670013427734 335.399993896484 301.230010986328 286.339996337891 240.929992675781 218.869995117188 385.279998779297 318.089996337891 183.970001220703 165.429992675781 91 4.41304349899292 1 -3.4e+38 -3.4e+38 -3.4e+38 -3.4e+38 -3.4e+38 -3.4e+38 -3.4e+38 -3.4e+38 -3.4e+38 -3.4e+38 -3.4e+38 -3.4e+38 -3.4e+38 -3.4e+38 -3.4e+38 -3.4e+38 -3.4e+38 -3.4e+38 -3.4e+38 -3.4e+38 -3.4e+38 -3.4e+38 -3.4e+38 -3.4e+38 -3.4e+38 -3.4e+38 -3.4e+38 -3.4e+38 -3.4e+38 -3.4e+38 -3.4e+38 -3.4e+38
-3.4e+38 -3.4e+38 -3.4e+38 -3.4e+38 -3.4e+38 -3.4e+38 -3.4e+38 -3.4e+38 -3.4e+38 -3.4e+38 -3.4e+38 -3.4e+38 -3.4e+38 -3.4e+38 -3.4e+38 -3.4e+38 -3.4e+38 -3.4e+38 -3.4e+38 -3.4e+38 -3.4e+38 -3.4e+38 -3.4e+38 -3.4e+38 -3.4e+38 -3.4e+38 -3.4e+38 -3.4e+38 -3.4e+38 -3.4e+38 -3.4e+38 15.9743585586548 185.009994506836 1175.58996582031 2149.669921875 2594.669921875 1336.17004394531 861.169982910156 466.359985351562 322.170013427734 238.570007324219 237.759994506836 290.160003662109 371.170013427734 408.130004882812 282.040008544922 254.029998779297 241.729995727539 182.690002441406 173.059997558594 131.740005493164 97.0299987792969 92.620002746582 98.8000030517578 135.289993286133 95.7799987792969 119.819999694824 532.450012207031 487.309997558594 563.030029296875 534.840026855469 327.720001220703 176.539993286133 162.449996948242 177.440002441406 235.479995727539 65.5800018310547 78.5500030517578 135.889999389648 192.119995117188 295.630004882812 514.210021972656 432.059997558594 290.869995117188 254.889999389648 221.089996337891 297.059997558594 294.320007324219 289.779998779297 296.049987792969 290.429992675781 230 201.899993896484 236.880004882812 151.679992675781 130.220001220703 110 71.1399993896484 15.9799995422363 1.01333332061768 -3.4e+38 -3.4e+38 -3.4e+38 -3.4e+38 -3.4e+38 -3.4e+38 -3.4e+38 -3.4e+38 -3.4e+38 -3.4e+38 -3.4e+38 -3.4e+38 -3.4e+38 -3.4e+38 -3.4e+38 -3.4e+38 -3.4e+38 -3.4e+38 -3.4e+38 -3.4e+38 -3.4e+38 -3.4e+38 -3.4e+38 -3.4e+38 -3.4e+38 -3.4e+38 -3.4e+38 -3.4e+38 -3.4e+38 -3.4e+38 -3.4e+38 -3.4e+38
-3.4e+38 -3.4e+38 -3.4e+38 -3.4e+38 -3.4e+38 -3.4e+38 -3.4e+38 -3.4e+38 143 -3.4e+38 -3.4e+38 -3.4e+38 -3.4e+38 -3.4e+38 -3.4e+38 -3.4e+38 -3.4e+38 -3.4e+38 -3.4e+38 -3.4e+38 -3.4e+38 -3.4e+38 -3.4e+38 -3.4e+38 -3.4e+38 -3.4e+38 -3.4e+38 -3.4e+38 -3.4e+38 198.53125 183.573028564453 170.740005493164 889.320007324219 2730.55004882812 3065.169921875 1740.26000976562 565.559997558594 415.5 282.299987792969 229.300003051758 191.279998779297 190.820007324219 252.800003051758 498.230010986328 396.920013427734 248.669998168945 238.830001831055 204.949996948242 215.479995727539 191.580001831055 135.289993286133 97.4700012207031 98.9599990844727 96.129997253418 81.8499984741211 88.2699966430664 115.949996948242 755.760009765625 518.309997558594 451.160003662109 223.059997558594 152.039993286133 154.589996337891 127.900001525879 90.6399993896484 65.6100006103516 56.9500007629395 89.7300033569336 131.369995117188 191.259994506836 217.220001220703 269.820007324219 288.570007324219 259.739990234375 230.330001831055 193.429992675781 256.149993896484 236.539993286133 284 300.940002441406 250.330001831055 256.440002441406 204.039993286133 191.639999389648 165.559997558594 113.760002136230 72.9199981689453 29.7299995422363 6.50561809539795 1 -3.4e+38 -3.4e+38 -3.4e+38 -3.4e+38 -3.4e+38 -3.4e+38 -3.4e+38 -3.4e+38 -3.4e+38 -3.4e+38 -3.4e+38 -3.4e+38 -3.4e+38 -3.4e+38 -3.4e+38 -3.4e+38 -3.4e+38 -3.4e+38 -3.4e+38 -3.4e+38 -3.4e+38 -3.4e+38 -3.4e+38 -3.4e+38 -3.4e+38 -3.4e+38 -3.4e+38 -3.4e+38 -3.4e+38 -3.4e+38 -3.4e+38 -3.4e+38
-3.4e+38 -3.4e+38 -3.4e+38 -3.4e+38 -3.4e+38 -3.4e+38 219.333328247070 -3.4e+38 106.75 22 -3.4e+38 -3.4e+38 -3.4e+38 -3.4e+38 -3.4e+38 -3.4e+38 -3.4e+38 -3.4e+38 -3.4e+38 -3.4e+38 -3.4e+38 -3.4e+38 -3.4e+38 -3.4e+38 -3.4e+38 -3.4e+38 -3.4e+38 -3.4e+38 -3.4e+38 217.826919555664 273.239990234375 564.640014648438 2227.5400390625 2975.14990234375 1723.48999023438 572.690002441406 372.510009765625 292.359985351562 242.990005493164 178.119995117188 165.050003051758 166.479995727539 176.529998779297 422.950012207031 296.480010986328 213.75 165.889999389648 195.009994506836 205.320007324219 197.350006103516 141.429992675781 99.2900009155273 99.2900009155273 92.0500030517578 77.6900024414062 111.730003356934 111.480003356934 175.289993286133 179.740005493164 177.740005493164 123.230003356934 83.5599975585938 76.5800018310547 72.4400024414062 72.0800018310547 71.6800003051758 58.5099983215332 85.7799987792969 107.040000915527 197.960006713867 206.259994506836 220.330001831055 155.309997558594 195.110000610352 224.990005493164 183.479995727539 247.729995727539 244 268.859985351562 346.880004882812 325.679992675781 236.360000610352 211.699996948242 183.850006103516 195.889999389648 146.589996337891 72.0100021362305 11.2666664123535 1.37878787517548 1 1 -3.4e+38 -3.4e+38 -3.4e+38 -3.4e+38 -3.4e+38 -3.4e+38 -3.4e+38 -3.4e+38 -3.4e+38 -3.4e+38 -3.4e+38 -3.4e+38 -3.4e+38 -3.4e+38 -3.4e+38 -3.4e+38 -3.4e+38 -3.4e+38 -3.4e+38 -3.4e+38 -3.4e+38 -3.4e+38 -3.4e+38 -3.4e+38 -3.4e+38 -3.4e+38 -3.4e+38 -3.4e+38 -3.4e+38 -3.4e+38 -3.4e+38
-3.4e+38 -3.4e+38 -3.4e+38 -3.4e+38 -3.4e+38 -3.4e+38 456.416656494141 317.361114501953 180.1875 1 -3.4e+38 -3.4e+38 -3.4e+38 -3.4e+38 -3.4e+38 -3.4e+38 -3.4e+38 -3.4e+38 -3.4e+38 -3.4e+38 -3.4e+38 -3.4e+38 -3.4e+38 -3.4e+38 -3.4e+38 -3.4e+38 -3.4e+38 -3.4e+38 125.333335876465 251.311111450195 264.420013427734 909.260009765625 2693.15991210938 3405.61010742188 1422.88000488281 366.720001220703 280.5 250.830001831055 218.020004272461 190.419998168945 149.240005493164 130.380004882812 155.699996948242 135.139999389648 149.309997558594 167.600006103516 172.410003662109 130.110000610352 118.889999389648 148.910003662109 177.770004272461 116.599998474121 97.8099975585938 99.5 103.930000305176 105.900001525879 105.120002746582 66.9199981689453 61.4900016784668 72.5899963378906 65.3099975585938 54.689998626709 56.7200012207031 58.439998626709 61.2799987792969 61.2200012207031 55.0699996948242 81.8899993896484 111.830001831055 155.919998168945 191.770004272461 171.940002441406 194.029998779297 229.850006103516 239.429992675781 213.899993896484 234.600006103516 294.579986572266 305.320007324219 353.200012207031 313.829986572266 250.119995117188 253.649993896484 227.369995117188 208.860000610352 211.330001831055 32.1666679382324 1.26666665077209 0.97183096408844 1 1 1.86666667461395 1 -3.4e+38 -3.4e+38 -3.4e+38 -3.4e+38 -3.4e+38 -3.4e+38 -3.4e+38 -3.4e+38 -3.4e+38 -3.4e+38 -3.4e+38 -3.4e+38 -3.4e+38 -3.4e+38 -3.4e+38 -3.4e+38 -3.4e+38 -3.4e+38 -3.4e+38 -3.4e+38 -3.4e+38 -3.4e+38 -3.4e+38 -3.4e+38 -3.4e+38 -3.4e+38 -3.4e+38 -3.4e+38 -3.4e+38
-3.4e+38 -3.4e+38 -3.4e+38 -3.4e+38 -3.4e+38 -3.4e+38 251.100006103516 295.885711669922 347.045440673828 190.454544067383 130.352935791016 3 -3.4e+38 -3.4e+38 -3.4e+38 -3.4e+38 -3.4e+38 -3.4e+38 -3.4e+38 -3.4e+38 -3.4e+38 -3.4e+38 -3.4e+38 -3.4e+38 -3.4e+38 -3.4e+38 -3.4e+38 -3.4e+38 128.800003051758 173.839996337891 149.949996948242 1869.66003417969 3574.8798828125 2775.69995117188 1059.90002441406 310.75 269.809997558594 234.809997558594 209.619995117188 210.899993896484 173.210006713867 142.160003662109 120.980003356934 134.559997558594 101.739997863770 112.699996948242 115.290000915527 116.5 93.6100006103516 98.3399963378906 130.110000610352 155.690002441406 101.680000305176 126.139999389648 161.009994506836 145.179992675781 114.559997558594 65.1600036621094 49.2299995422363 47.5200004577637 45.2999992370605 41.0900001525879 40.7299995422363 43.2200012207031 48.439998626709 48.5 54.5999984741211 83.3499984741211 96.0400009155273 99.8099975585938 116.830001831055 99.25 112.099998474121 119.319999694824 192.690002441406 184.509994506836 253.169998168945 283.100006103516 307.809997558594 372.279998779297 287.529998779297 268.619995117188 238.169998168945 296.140014648438 180.539993286133 108.370002746582 7.57575750350952 1 0.947916686534882 1.16999995708466 4.26999998092651 6.40000009536743 1.16393446922302 3.04081630706787 2.22857141494751 1.25 1 1 -3.4e+38 -3.4e+38 -3.4e+38 -3.4e+38 -3.4e+38 -3.4e+38 -3.4e+38 -3.4e+38 -3.4e+38 -3.4e+38 -3.4e+38 -3.4e+38 -3.4e+38 -3.4e+38 -3.4e+38 -3.4e+38 -3.4e+38 -3.4e+38 -3.4e+38 -3.4e+38 -3.4e+38 -3.4e+38 -3.4e+38 -3.4e+38
-3.4e+38 -3.4e+38 -3.4e+38 -3.4e+38 -3.4e+38 -3.4e+38 258.333343505859 83.25 136 -3.4e+38 50 -3.4e+38 -3.4e+38 -3.4e+38 -3.4e+38 -3.4e+38 -3.4e+38 -3.4e+38 -3.4e+38 -3.4e+38 -3.4e+38 -3.4e+38 -3.4e+38 -3.4e+38 -3.4e+38 -3.4e+38 -3.4e+38 137.444442749023 221.113403320312 156.589996337891 191.300003051758 2499.19995117188 3412.86010742188 1745.48999023438 460.049987792969 302.440002441406 254.5 214.779998779297 193.729995727539 181.039993286133 164.110000610352 145.240005493164 125.430000305176 112.779998779297 109.709999084473 103.510002136230 97.5 94.4100036621094 92.2200012207031 84.3099975585938 86.4899978637695 100.080001831055 99.3600006103516 130.880004882812 131.779998779297 123.080001831055 109.269996643066 61.4000015258789 43.7099990844727 45.2900009155273 40.5099983215332 38.1300010681152 38.0299987792969 38.2099990844727 38.7299995422363 39.6500015258789 50.7400016784668 92.3399963378906 98.599998474121 95.4599990844727 99.1100006103516 98.120002746582 86.6600036621094 100.790000915527 85.5999984741211 75.1399993896484 95.099998474121 132.380004882812 231.850006103516 214.360000610352 238.779998779297 300.950012207031 252.320007324219 131.699996948242 103.319999694824 34.4099998474121 1.55999994277954 1.03999996185303 3.02999997138977 4.80000019073486 5.46000003814697 4.35353517532349 2.125 11.0399999618530 14.9799995422363 12.0200004577637 4.17708349227905 2.07042264938354 1.0625 1 -3.4e+38 -3.4e+38 -3.4e+38 -3.4e+38 -3.4e+38 -3.4e+38 -3.4e+38 -3.4e+38 -3.4e+38 -3.4e+38 -3.4e+38 -3.4e+38 -3.4e+38 -3.4e+38 -3.4e+38 -3.4e+38 -3.4e+38 -3.4e+38 -3.4e+38 -3.4e+38 -3.4e+38 -3.4e+38
-3.4e+38 -3.4e+38 -3.4e+38 -3.4e+38 -3.4e+38 -3.4e+38 -3.4e+38 -3.4e+38 -3.4e+38 -3.4e+38 -3.4e+38 -3.4e+38 -3.4e+38 -3.4e+38 -3.4e+38 -3.4e+38 -3.4e+38 -3.4e+38 -3.4e+38 -3.4e+38 -3.4e+38 -3.4e+38 -3.4e+38 -3.4e+38 -3.4e+38 -3.4e+38 -3.4e+38 70 306.541656494141 73.0599975585938 110.510002136230 2292.85009765625 3338.4599609375 1747.03002929688 469.940002441406 307.339996337891 241.339996337891 203.169998168945 185.039993286133 172.919998168945 158.300003051758 140.240005493164 119.160003662109 105.849998474121 107.430000305176 145.360000610352 110.879997253418 98.7799987792969 97.8399963378906 95.4400024414062 93.1800003051758 91.4499969482422 84.2900009155273 70.8099975585938 75 83.5 66.5899963378906 57.3400001525879 52.0400009155273 46.3899993896484 40.9599990844727 38.4099998474121 37.2999992370605 36.5699996948242 36.4900016784668 35.9799995422363 37.560001373291 64.7600021362305 94.9400024414062 95.9599990844727 88.9300003051758 101.220001220703 59.7299995422363 64.870002746582 75.1500015258789 74.0400009155273 74.5299987792969 34.7700004577637 99.3399963378906 110.220001220703 138.960006713867 179.699996948242 57.5099983215332 57.2099990844727 9.23999977111816 3.25999999046326 1.28999996185303 1.73000001907349 2.42708325386047 1.59756100177765 1.13095235824585 5.07936525344849 20.0631580352783 23.0900001525879 30.7999992370605 44.3600006103516 24.1700000762939 17.3600006103516 10.1063833236694 3.45977020263672 1.39130437374115 -3.4e+38 -3.4e+38 -3.4e+38 -3.4e+38 -3.4e+38 -3.4e+38 -3.4e+38 -3.4e+38 -3.4e+38 -3.4e+38 -3.4e+38 -3.4e+38 -3.4e+38 -3.4e+38 -3.4e+38 -3.4e+38 -3.4e+38 -3.4e+38 -3.4e+38 -3.4e+38 -3.4e+38
-3.4e+38 -3.4e+38 -3.4e+38 -3.4e+38 -3.4e+38 -3.4e+38 -3.4e+38 -3.4e+38 -3.4e+38 -3.4e+38 -3.4e+38 -3.4e+38 -3.4e+38 -3.4e+38 -3.4e+38 -3.4e+38 -3.4e+38 -3.4e+38 -3.4e+38 -3.4e+38 -3.4e+38 -3.4e+38 -3.4e+38 -3.4e+38 -3.4e+38 -3.4e+38 -3.4e+38 12.8999996185303 131.50537109375 83.4444427490234 171.889999389648 1816.82995605469 3507.34008789062 1472.60998535156 487.760009765625 320.019989013672 235.589996337891 199.529998779297 181.130004882812 166.339996337891 153 143.809997558594 124.980003356934 104.480003356934 103.410003662109 101.919998168945 102.379997253418 96.849998474121 97.629997253418 97.3199996948242 91.8600006103516 91.6600036621094 75.3199996948242 74.0899963378906 61.3699989318848 59.7700004577637 56.8899993896484 56.8300018310547 55.4900016784668 48.4799995422363 42.9300003051758 39.4700012207031 37.7200012207031 36.5900001525879 34.3300018310547 34 31.3700008392334 38.439998626709 87.2399978637695 100.480003356934 113.900001525879 87.0100021362305 73 70.0100021362305 89.1100006103516 70.1699981689453 22.7199993133545 51.2999992370605 49.7000007629395 27.9500007629395 22.9099998474121 34.6500015258789 60.4199981689453 73.9300003051758 37.810001373291 11.2600002288818 1.04999995231628 1.63999998569489 2.11999988555908 1.47000002861023 3.91752576828003 36.5353546142578 86.0500030517578 54.0699996948242 64.5500030517578 72.8600006103516 47.0999984741211 51.4700012207031 39.8699989318848 42.1800003051758 6.4769229888916 1 1.05882358551025 1.57142853736877 -3.4e+38 -3.4e+38 -3.4e+38 -3.4e+38 -3.4e+38 -3.4e+38 -3.4e+38 -3.4e+38 -3.4e+38 -3.4e+38 -3.4e+38 -3.4e+38 -3.4e+38 -3.4e+38 -3.4e+38 -3.4e+38 -3.4e+38 -3.4e+38
-3.4e+38 -3.4e+38 -3.4e+38 -3.4e+38 -3.4e+38 -3.4e+38 -3.4e+38 -3.4e+38 -3.4e+38 -3.4e+38 -3.4e+38 -3.4e+38 -3.4e+38 -3.4e+38 -3.4e+38 -3.4e+38 -3.4e+38 -3.4e+38 -3.4e+38 -3.4e+38 -3.4e+38 -3.4e+38 -3.4e+38 -3.4e+38 -3.4e+38 -3.4e+38 -3.4e+38 -3.4e+38 71.6190490722656 17.1052627563477 880.828308105469 3046.43994140625 2548.3798828125 928.739990234375 361.079986572266 288.230010986328 236.619995117188 206.110000610352 178.380004882812 164.699996948242 154.869995117188 147.149993896484 131.970001220703 114.650001525879 106.510002136230 101.279998779297 99.870002746582 97.4499969482422 89.7799987792969 90.6100006103516 86.1100006103516 86.0899963378906 82.9800033569336 80.7099990844727 63.1399993896484 62.1699981689453 61.2099990844727 55.7599983215332 52.0499992370605 48.2200012207031 43.4099998474121 39.8499984741211 38.6100006103516 36.8300018310547 33.689998626709 31.3199996948242 27.2600002288818 27.2399997711182 47.8600006103516 74.1500015258789 88.0800018310547 93.1100006103516 87.9000015258789 29.75 19.8600006103516 16.1800003051758 56.1300010681152 87.0999984741211 105.480003356934 67.0100021362305 63.75 82.6900024414062 102.080001831055 96.7200012207031 85.0899963378906 31.0499992370605 6.1100001335144 16.3600006103516 16.8099994659424 12.9399995803833 30.7299995422363 82.5199966430664 90.75 71.5500030517578 81.129997253418 78.5999984741211 80.379997253418 117.870002746582 67.8499984741211 52.5499992370605 6.60294103622437 10.9125003814697 23.5851058959961 26.6875 16.9464282989502 5.04347848892212 7.5 8.18181800842285 20.6399993896484 12 -3.4e+38 -3.4e+38 -3.4e+38 -3.4e+38 -3.4e+38 -3.4e+38 -3.4e+38 -3.4e+38 -3.4e+38 -3.4e+38 -3.4e+38 -3.4e+38
-3.4e+38 -3.4e+38 -3.4e+38 -3.4e+38 -3.4e+38 -3.4e+38 -3.4e+38 -3.4e+38 -3.4e+38 -3.4e+38 -3.4e+38 -3.4e+38 -3.4e+38 -3.4e+38 -3.4e+38 -3.4e+38 -3.4e+38 -3.4e+38 -3.4e+38 -3.4e+38 -3.4e+38 -3.4e+38 -3.4e+38 -3.4e+38 -3.4e+38 -3.4e+38 -3.4e+38 -3.4e+38 1 44.2799987792969 1718.80004882812 2789.77001953125 1780.36999511719 679.960021972656 334.589996337891 274.160003662109 230.139999389648 202.410003662109 176.649993896484 159.270004272461 147.179992675781 143.589996337891 123 113.489997863770 104.449996948242 100.830001831055 99.6100006103516 99.1100006103516 99.5400009155273 98.3600006103516 92.1500015258789 75.0599975585938 70.2799987792969 68.5699996948242 72.8600006103516 77.9499969482422 83.2300033569336 59.689998626709 50.3600006103516 46.75 42.5900001525879 40.0400009155273 38.7700004577637 36.689998626709 33.8400001525879 29.6900005340576 28.2399997711182 27.6499996185303 27.6499996185303 30.8299999237061 31.0100002288818 37.560001373291 31.0699996948242 28.0699996948242 31.4300003051758 29.75 52.7700004577637 82.7200012207031 120.980003356934 77.379997253418 73.4300003051758 95.4700012207031 89.0400009155273 94.6600036621094 113.040000915527 63.2000007629395 45.7999992370605 53.6199989318848 52.310001373291 51.8499984741211 29.8099994659424 86.9499969482422 94.4300003051758 90.7099990844727 136.490005493164 85.9800033569336 149.410003662109 133.720001220703 84.75 40.7299995422363 18.0659332275391 37.810001373291 69.3899993896484 71.120002746582 32.0800018310547 13.8000001907349 102.870002746582 138 127.139999389648 63.5299987792969 40.7397270202637 28.0588226318359 -3.4e+38 -3.4e+38 -3.4e+38 -3.4e+38 -3.4e+38 -3.4e+38 -3.4e+38 -3.4e+38 -3.4e+38 -3.4e+38
-3.4e+38 -3.4e+38 -3.4e+38 -3.4e+38 -3.4e+38 -3.4e+38 -3.4e+38 -3.4e+38 -3.4e+38 -3.4e+38 -3.4e+38 -3.4e+38 -3.4e+38 -3.4e+38 -3.4e+38 -3.4e+38 -3.4e+38 -3.4e+38 -3.4e+38 -3.4e+38 -3.4e+38 -3.4e+38 -3.4e+38 -3.4e+38 -3.4e+38 -3.4e+38 -3.4e+38 43.7999992370605 181.739730834961 372.850006103516 1964.10998535156 2244.30004882812 1202.68005371094 651.450012207031 312.089996337891 239.389999389648 206.289993286133 194.960006713867 171.410003662109 159.179992675781 142.080001831055 131.690002441406 113.779998779297 105.139999389648 102.599998474121 100.349998474121 98.1100006103516 96.3600006103516 93.5199966430664 98.0299987792969 86 79.8899993896484 93.0100021362305 80.7799987792969 82.8600006103516 95.7099990844727 86.4100036621094 59.9199981689453 55.9000015258789 52.5900001525879 46.8899993896484 41.8499984741211 39.4300003051758 36.2700004577637 35.75 33.6599998474121 32.060001373291 31.2399997711182 27.8999996185303 24.3099994659424 23.9099998474121 28.8299999237061 41.9900016784668 43.7299995422363 54.7700004577637 70.0899963378906 72.5899963378906 84.8000030517578 73.4700012207031 82.1900024414062 82.0299987792969 95.4100036621094 94.0899963378906 87.9899978637695 93.0199966430664 70.3899993896484 82.5299987792969 101.760002136230 87.75 92.4000015258789 68.3199996948242 93.1900024414062 96.629997253418 125.919998168945 249.419998168945 123.559997558594 230.660003662109 85.879997253418 46.2000007629395 13.8000001907349 31.1299991607666 66.7399978637695 80.1999969482422 92.25 49.0800018310547 61.7599983215332 165.220001220703 451.829986572266 183.550003051758 146.520004272461 235.729995727539 83.3958358764648 66.4772720336914 -3.4e+38 -3.4e+38 -3.4e+38 -3.4e+38 -3.4e+38 -3.4e+38 -3.4e+38 -3.4e+38 -3.4e+38
-3.4e+38 -3.4e+38 -3.4e+38 -3.4e+38 -3.4e+38 -3.4e+38 -3.4e+38 -3.4e+38 -3.4e+38 -3.4e+38 -3.4e+38 -3.4e+38 -3.4e+38 -3.4e+38 -3.4e+38 -3.4e+38 -3.4e+38 -3.4e+38 -3.4e+38 -3.4e+38 -3.4e+38 -3.4e+38 -3.4e+38 -3.4e+38 -3.4e+38 -3.4e+38 -3.4e+38 246.100006103516 496.5 867.539978027344 1664.18005371094 2154.78002929688 1199.18994140625 726.25 441.079986572266 191.979995727539 179.059997558594 177.080001831055 157.979995727539 141.619995117188 131.059997558594 119.709999084473 114.730003356934 105.029998779297 100.569999694824 99.6600036621094 99.5599975585938 94.7300033569336 89.1699981689453 86.629997253418 82.3399963378906 78.9100036621094 82.3300018310547 80 81.2200012207031 83.6399993896484 69.879997253418 82.4300003051758 84 72.5400009155273 63.2900009155273 47.5999984741211 41.2900009155273 38.2400016784668 37.9700012207031 36.8800010681152 46.9000015258789 51.7400016784668 50.75 52.9199981689453 55.5299987792969 61.7599983215332 82.0800018310547 82.879997253418 83.3899993896484 94.620002746582 96.0199966430664 73.6600036621094 107.690002441406 139.429992675781 163.600006103516 144.059997558594 96.4700012207031 97.9199981689453 95.8099975585938 107.339996337891 104.129997253418 128.199996948242 141.300003051758 130.509994506836 68.3600006103516 104.319999694824 105.760002136230 169.449996948242 159.929992675781 159.979995727539 125.800003051758 115.309997558594 80.8399963378906 60.3300018310547 45.7900009155273 72.3099975585938 101.900001525879 81.6699981689453 91.9400024414062 107.529998779297 215.600006103516 562.599975585938 247.160003662109 274.040008544922 296.420013427734 278.480010986328 120.650001525879 25.8039207458496 1 -3.4e+38 -3.4e+38 -3.4e+38 -3.4e+38 -3.4e+38 -3.4e+38 -3.4e+38
-3.4e+38 -3.4e+38 -3.4e+38 -3.4e+38 -3.4e+38 -3.4e+38 -3.4e+38 -3.4e+38 -3.4e+38 -3.4e+38 -3.4e+38 -3.4e+38 -3.4e+38 -3.4e+38 -3.4e+38 -3.4e+38 -3.4e+38 -3.4e+38 -3.4e+38 -3.4e+38 -3.4e+38 -3.4e+38 -3.4e+38 -3.4e+38 -3.4e+38 -3.4e+38 2 197.913040161133 177.210006713867 1041.55004882812 2199.60009765625 1882.85998535156 1066.0400390625 394.420013427734 336.470001220703 178.110000610352 156.179992675781 157.559997558594 143.929992675781 133.179992675781 126.699996948242 117.599998474121 112.190002441406 103.459999084473 99.5199966430664 98.2600021362305 97.3899993896484 96.370002746582 94.9100036621094 86.2900009155273 83.4199981689453 88.129997253418 89.3000030517578 85.8499984741211 78.4700012207031 67.8300018310547 71.2699966430664 88.5400009155273 89.6699981689453 88.5199966430664 68.5999984741211 50.1399993896484 39.5 40.3199996948242 41.0499992370605 42.9799995422363 60.189998626709 63.6399993896484 63.2700004577637 55.5400009155273 48.1300010681152 77.870002746582 91.5800018310547 85.1100006103516 94.370002746582 98.4800033569336 84.5999984741211 133.720001220703 182.720001220703 195.059997558594 188.369995117188 127.080001831055 131.389999389648 141.699996948242 129.070007324219 199.860000610352 149.389999389648 218.940002441406 220.360000610352 196.419998168945 77.0400009155273 160.949996948242 187.089996337891 210.100006103516 236.970001220703 203.899993896484 189.139999389648 194.759994506836 140.419998168945 94.7699966430664 92.2699966430664 96.6800003051758 86.7600021362305 85.6699981689453 117.75 139.75 352.899993896484 505.510009765625 305.410003662109 492.489990234375 431.320007324219 247.009994506836 149.649993896484 82.4599990844727 58.0714302062988 2.40000009536743 -3.4e+38 -3.4e+38 -3.4e+38 -3.4e+38 -3.4e+38 -3.4e+38
-3.4e+38 -3.4e+38 -3.4e+38 -3.4e+38 -3.4e+38 -3.4e+38 -3.4e+38 -3.4e+38 -3.4e+38 -3.4e+38 -3.4e+38 -3.4e+38 -3.4e+38 -3.4e+38 -3.4e+38 -3.4e+38 -3.4e+38 -3.4e+38 -3.4e+38 -3.4e+38 -3.4e+38 -3.4e+38 -3.4e+38 -3.4e+38 -3.4e+38 -3.4e+38 -3.4e+38 77.316665649414 105.870002746582 488.769989013672 2262.61010742188 1528.73999023438 1145.56994628906 877.25 623.130004882812 284 208.570007324219 162.009994506836 152.389999389648 148.940002441406 134.679992675781 119.180000305176 105.050003051758 103.339996337891 140.369995117188 109 113.629997253418 99.8600006103516 99.9300003051758 95.120002746582 90.7799987792969 96.9700012207031 95.5599975585938 88.8899993896484 77.8199996948242 72.2399978637695 80.9100036621094 94.9199981689453 95.4300003051758 90.4700012207031 64.0299987792969 45.5200004577637 42.8699989318848 47.0900001525879 51.3899993896484 64.3000030517578 67.3600006103516 65.5299987792969 56.7000007629395 63.4300003051758 70.1100006103516 104.860000610352 91.2300033569336 99.0100021362305 98.7900009155273 80.2600021362305 92.4100036621094 112.099998474121 193.570007324219 213.259994506836 182.710006713867 211.399993896484 218.380004882812 185.660003662109 192.440002441406 263.75 195.740005493164 266.190002441406 282.660003662109 205.050003051758 113.989997863770 96.5100021362305 97.9400024414062 159.410003662109 227.779998779297 265.450012207031 271.230010986328 202.520004272461 143.229995727539 105.180000305176 141.270004272461 160 126.290000915527 147.220001220703 151.190002441406 179.949996948242 239.820007324219 435.929992675781 347.220001220703 590.539978027344 386.779998779297 228.610000610352 116.690002441406 92.379997253418 104.430000305176 97.3030319213867 48.4864883422852 92.5131607055664 63.5172424316406 -3.4e+38 -3.4e+38 -3.4e+38
-3.4e+38 -3.4e+38 -3.4e+38 -3.4e+38 -3.4e+38 -3.4e+38 -3.4e+38 -3.4e+38 -3.4e+38 -3.4e+38 -3.4e+38 -3.4e+38 -3.4e+38 -3.4e+38 -3.4e+38 -3.4e+38 -3.4e+38 -3.4e+38 -3.4e+38 -3.4e+38 -3.4e+38 -3.4e+38 -3.4e+38 -3.4e+38 -3.4e+38 -3.4e+38 -3.4e+38 60.9333343505859 55.2400016784668 237.820007324219 1531.68005371094 2049.14990234375 1069.68005371094 1623 1290.5 858.789978027344 359.640014648438 191.160003662109 196.429992675781 162.929992675781 131.979995727539 117.400001525879 103.059997558594 130.809997558594 155.460006713867 141.589996337891 138 100.849998474121 102.360000610352 99.5400009155273 100 99.9499969482422 100.410003662109 93.9899978637695 79.1600036621094 74.8899993896484 79.8000030517578 87.0800018310547 82.8399963378906 71.870002746582 58.7799987792969 61.6199989318848 56.1599998474121 55.3300018310547 64.8199996948242 81.2200012207031 65.7399978637695 61.2599983215332 67.870002746582 86.629997253418 97.3199996948242 99.650001525879 102.910003662109 110.529998779297 91.2799987792969 93.3199996948242 117.519996643066 103.650001525879 123.889999389648 250.240005493164 141.199996948242 188.179992675781 251.070007324219 237.919998168945 186.470001220703 317.839996337891 259.790008544922 280.760009765625 228.279998779297 189 170.149993896484 115.319999694824 146.190002441406 176.779998779297 173.910003662109 279.839996337891 264.260009765625 186.660003662109 177.380004882812 184.869995117188 207.679992675781 159.139999389648 177.809997558594 174.119995117188 184.889999389648 173.100006103516 297.579986572266 570.599975585938 474.910003662109 587.549987792969 389.029998779297 211.539993286133 155.639999389648 150.800003051758 124.959999084473 100.730003356934 173.520004272461 196.610000610352 66.3399963378906 8.8823528289795 -3.4e+38 -3.4e+38
-3.4e+38 -3.4e+38 -3.4e+38 -3.4e+38 -3.4e+38 -3.4e+38 -3.4e+38 -3.4e+38 -3.4e+38 -3.4e+38 -3.4e+38 -3.4e+38 -3.4e+38 -3.4e+38 -3.4e+38 -3.4e+38 -3.4e+38 -3.4e+38 -3.4e+38 -3.4e+38 -3.4e+38 -3.4e+38 -3.4e+38 -3.4e+38 -3.4e+38 -3.4e+38 -3.4e+38 95.6206893920898 25.6477279663086 146.979995727539 1261.31005859375 2106.27001953125 1864.43005371094 2175.55004882812 1894.71997070312 1023.47998046875 598.340026855469 249.630004882812 199.289993286133 139.919998168945 132.059997558594 161.869995117188 162.320007324219 179.210006713867 151.220001220703 159.289993286133 154.399993896484 170.570007324219 131.320007324219 130 101.709999084473 101.029998779297 98.8300018310547 91.7399978637695 90.7799987792969 79.9499969482422 79.6999969482422 85.6999969482422 82.5800018310547 70.0999984741211 63.8300018310547 73.4899978637695 79.5999984741211 84.129997253418 81.0899963378906 60.8300018310547 68.8499984741211 96.0899963378906 88.2300033569336 88.5800018310547 93.4400024414062 97.2900009155273 122.110000610352 94.5299987792969 93.7099990844727 119.949996948242 125.209999084473 157.050003051758 164.610000610352 214.039993286133 174.149993896484 180.039993286133 293.339996337891 301.010009765625 218.779998779297 307.160003662109 331.559997558594 258.769989013672 284.320007324219 357.160003662109 287.25 135.300003051758 189.289993286133 201.880004882812 192.979995727539 235.589996337891 308.600006103516 298.910003662109 318.760009765625 304.549987792969 274.320007324219 294.510009765625 279.019989013672 182.220001220703 230.940002441406 248.860000610352 311.559997558594 580.380004882812 551.710021972656 523.780029296875 420.510009765625 284.760009765625 361.369995117188 342.799987792969 228.679992675781 214.149993896484 476.510009765625 334.089996337891 117.059997558594 28.8478260040283 -3.4e+38 -3.4e+38
-3.4e+38 -3.4e+38 -3.4e+38 -3.4e+38 -3.4e+38 -3.4e+38 -3.4e+38 -3.4e+38 -3.4e+38 -3.4e+38 -3.4e+38 -3.4e+38 -3.4e+38 -3.4e+38 -3.4e+38 -3.4e+38 -3.4e+38 -3.4e+38 -3.4e+38 -3.4e+38 -3.4e+38 -3.4e+38 -3.4e+38 -3.4e+38 -3.4e+38 -3.4e+38 -3.4e+38 -3.4e+38 10 56.8421058654785 310.470001220703 2054.89990234375 3228.2099609375 2482.42993164062 1585.44995117188 853.119995117188 491.040008544922 539.929992675781 412.880004882812 152.699996948242 156.419998168945 212.699996948242 185.389999389648 186.740005493164 168.720001220703 194.929992675781 191.289993286133 186.600006103516 179.5 155.75 140.179992675781 106.569999694824 98.6999969482422 91.3199996948242 91.5899963378906 84.2600021362305 83.5800018310547 87.379997253418 93.6900024414062 82.1399993896484 72.1500015258789 86.2099990844727 86.25 87.4000015258789 69.7300033569336 81.4499969482422 87.129997253418 96.4400024414062 84.9199981689453 98.4599990844727 93.4000015258789 106.220001220703 121.639999389648 111.519996643066 113.120002746582 130.369995117188 216.020004272461 174.179992675781 158.300003051758 195.679992675781 227.5 190.690002441406 314.040008544922 336.190002441406 310.820007324219 276.279998779297 294.079986572266 288.459991455078 236.990005493164 274.920013427734 393.540008544922 221.350006103516 203.410003662109 242.100006103516 194.070007324219 293.630004882812 383.660003662109 409.179992675781 448.549987792969 388.570007324219 340.140014648438 262.399993896484 235.550003051758 194.740005493164 203.199996948242 304.570007324219 382.799987792969 524.780029296875 608.799987792969 504.489990234375 437.399993896484 315.380004882812 383.720001220703 348.540008544922 286.980010986328 324.690002441406 514.890014648438 503.160003662109 195.429992675781 61.3013687133789 -3.4e+38 -3.4e+38
-3.4e+38 -3.4e+38 -3.4e+38 -3.4e+38 -3.4e+38 -3.4e+38 -3.4e+38 -3.4e+38 -3.4e+38 -3.4e+38 -3.4e+38 -3.4e+38 -3.4e+38 -3.4e+38 -3.4e+38 -3.4e+38 -3.4e+38 -3.4e+38 -3.4e+38 -3.4e+38 -3.4e+38 -3.4e+38 -3.4e+38 -3.4e+38 -3.4e+38 -3.4e+38 -3.4e+38 -3.4e+38 -3.4e+38 15 218.466659545898 1674.55004882812 3095.419921875 2737.89990234375 2473.580078125 589.359985351562 389.390014648438 615.429992675781 346.079986572266 177.25 219.289993286133 207.949996948242 237.020004272461 200.009994506836 200.110000610352 198.600006103516 185.619995117188 175.990005493164 176.350006103516 176.649993896484 153.889999389648 103.290000915527 98.3399963378906 94.7399978637695 95.8899993896484 98.870002746582 98.8899993896484 99 96.6699981689453 84.7399978637695 83.3600006103516 89.2399978637695 92.5800018310547 80.75 80.8899993896484 88.1800003051758 98.349998474121 96.349998474121 90.7799987792969 100.629997253418 107.639999389648 101.339996337891 114.080001831055 98.9700012207031 244.419998168945 223.190002441406 264.140014648438 263.709991455078 258.149993896484 247.309997558594 284.019989013672 274.260009765625 328.369995117188 361.040008544922 257.549987792969 324 283.709991455078 292.230010986328 338.739990234375 307.510009765625 208.639999389648 209.320007324219 253.869995117188 236.919998168945 175.330001831055 292.75 395.010009765625 318.429992675781 268.329986572266 265.720001220703 266.079986572266 306.140014648438 221.080001831055 221.940002441406 208.199996948242 224.460006713867 299.450012207031 370.829986572266 607.210021972656 713.739990234375 755.5 436.329986572266 599.219970703125 440.010009765625 545.380004882812 603.5 532.280029296875 500.130004882812 171.520004272461 64.8854141235352 -3.4e+38 -3.4e+38
-3.4e+38 -3.4e+38 -3.4e+38 -3.4e+38 -3.4e+38 -3.4e+38 -3.4e+38 -3.4e+38 -3.4e+38 -3.4e+38 -3.4e+38 -3.4e+38 -3.4e+38 -3.4e+38 -3.4e+38 -3.4e+38 -3.4e+38 -3.4e+38 -3.4e+38 -3.4e+38 -3.4e+38 -3.4e+38 -3.4e+38 -3.4e+38 -3.4e+38 -3.4e+38 -3.4e+38 -3.4e+38 -3.4e+38 -3.4e+38 110.172416687012 733.109985351562 2639.73999023438 3091.39990234375 3052.330078125 1338.31994628906 558.070007324219 731.010009765625 406.519989013672 164.880004882812 193.240005493164 207.050003051758 219.050003051758 200 200 199.080001831055 196.350006103516 197.809997558594 196.899993896484 195.190002441406 192.970001220703 168.850006103516 100.970001220703 98.8399963378906 98.9199981689453 96.5400009155273 95.5 95.120002746582 91 92.1500015258789 95.7900009155273 94.1399993896484 97.879997253418 83.0199966430664 97.2699966430664 96.5500030517578 99.129997253418 89.1900024414062 85.7600021362305 99.6100006103516 153.509994506836 178.850006103516 109.760002136230 109.080001831055 121.129997253418 281.679992675781 348.359985351562 353.450012207031 332.640014648438 306.769989013672 296.420013427734 358.799987792969 320 332.109985351562 258.230010986328 313.890014648438 368.190002441406 323.170013427734 388.029998779297 318.5 193.149993896484 191.580001831055 274.809997558594 205.039993286133 170.639999389648 244.470001220703 331.880004882812 296.299987792969 339.920013427734 349.029998779297 375.890014648438 381.739990234375 318.779998779297 344.709991455078 239.759994506836 263.049987792969 308.179992675781 388.570007324219 604.239990234375 640.090026855469 722.549987792969 520.409973144531 619.849975585938 645.320007324219 645.580017089844 630.840026855469 547.840026855469 452.339996337891 203.800003051758 78.2580642700195 -3.4e+38 -3.4e+38
-3.4e+38 -3.4e+38 -3.4e+38 -3.4e+38 -3.4e+38 -3.4e+38 -3.4e+38 -3.4e+38 -3.4e+38 -3.4e+38 -3.4e+38 -3.4e+38 -3.4e+38 -3.4e+38 -3.4e+38 -3.4e+38 -3.4e+38 -3.4e+38 -3.4e+38 -3.4e+38 -3.4e+38 -3.4e+38 -3.4e+38 -3.4e+38 -3.4e+38 -3.4e+38 -3.4e+38 -3.4e+38 -3.4e+38 -3.4e+38 -3.4e+38 331.568634033203 2338.36010742188 3492.0400390625 3105.73999023438 2734.56005859375 703.640014648438 809.080017089844 516.340026855469 223.860000610352 161.550003051758 254.919998168945 257.529998779297 200.300003051758 217.059997558594 202.449996948242 197.259994506836 199.389999389648 199.690002441406 199.699996948242 199.520004272461 197.419998168945 126.400001525879 99.9100036621094 98.6900024414062 98.0899963378906 98.1699981689453 97.0500030517578 96.9100036621094 97.8099975585938 99.1800003051758 97.9899978637695 94.2099990844727 85.8600006103516 102.449996948242 126.160003662109 130.770004272461 96.1699981689453 93.9700012207031 102.230003356934 108.389999389648 117.699996948242 120.699996948242 116.339996337891 132.910003662109 320.089996337891 449.149993896484 466.070007324219 411.869995117188 393.720001220703 382.299987792969 374.010009765625 243.240005493164 288.540008544922 307.709991455078 316.910003662109 311.209991455078 349.510009765625 393.459991455078 308.899993896484 218.830001831055 181.559997558594 254.449996948242 151.160003662109 285.790008544922 315.519989013672 430.850006103516 382.820007324219 350.290008544922 375.079986572266 400.350006103516 316.260009765625 320.040008544922 308.799987792969 274.230010986328 327.359985351562 401.700012207031 475.190002441406 573.409973144531 453.799987792969 450.339996337891 504.290008544922 455.209991455078 557.52001953125 614.820007324219 698.22998046875 770.219970703125 517.609985351562 366.869995117188 86.3375015258789 -3.4e+38 -3.4e+38
-3.4e+38 -3.4e+38 -3.4e+38 -3.4e+38 -3.4e+38 -3.4e+38 -3.4e+38 -3.4e+38 -3.4e+38 -3.4e+38 -3.4e+38 -3.4e+38 -3.4e+38 -3.4e+38 -3.4e+38 -3.4e+38 -3.4e+38 -3.4e+38 -3.4e+38 -3.4e+38 -3.4e+38 -3.4e+38 -3.4e+38 -3.4e+38 -3.4e+38 -3.4e+38 -3.4e+38 -3.4e+38 -3.4e+38 -3.4e+38 -3.4e+38 46 734.766662597656 2764.76000976562 3568.92993164062 3046.580078125 2021.44995117188 806.320007324219 477.570007324219 272.040008544922 172.449996948242 205.960006713867 257.329986572266 216.910003662109 202.190002441406 220.479995727539 199.919998168945 199.509994506836 199.970001220703 199.919998168945 195.25 183.710006713867 168.770004272461 140.220001220703 113.319999694824 115.889999389648 99.129997253418 98.8000030517578 98.0199966430664 100.029998779297 99.9199981689453 96.4199981689453 87.3399963378906 97.370002746582 104.239997863770 168.899993896484 165.369995117188 110.230003356934 117.099998474121 120.480003356934 104.139999389648 140.25 155.820007324219 193.949996948242 114.620002746582 206.520004272461 272.130004882812 325.380004882812 450.290008544922 431.549987792969 414.029998779297 366.970001220703 283.940002441406 335.589996337891 242.509994506836 351.940002441406 376.809997558594 432.549987792969 339.799987792969 267.119995117188 183.160003662109 217 282.649993896484 190.869995117188 304.130004882812 436.25 474.200012207031 389.140014648438 389.589996337891 390.019989013672 335.989990234375 273.790008544922 435.890014648438 470.299987792969 385.609985351562 335.119995117188 485.470001220703 512.059997558594 450.510009765625 425.429992675781 373.760009765625 331.570007324219 340.839996337891 484.75 524.880004882812 610.080017089844 767.830017089844 532.169982910156 217.649993896484 49.9767456054688 -3.4e+38 -3.4e+38
-3.4e+38 -3.4e+38 -3.4e+38 -3.4e+38 -3.4e+38 -3.4e+38 -3.4e+38 -3.4e+38 -3.4e+38 -3.4e+38 -3.4e+38 -3.4e+38 -3.4e+38 -3.4e+38 -3.4e+38 -3.4e+38 -3.4e+38 -3.4e+38 -3.4e+38 -3.4e+38 -3.4e+38 -3.4e+38 -3.4e+38 -3.4e+38 -3.4e+38 -3.4e+38 -3.4e+38 -3.4e+38 -3.4e+38 -3.4e+38 -3.4e+38 -3.4e+38 218.203704833984 2243.7900390625 4102.52001953125 3189.1298828125 3118 956.280029296875 692.640014648438 307.190002441406 425.420013427734 258.809997558594 260.670013427734 217.179992675781 215.639999389648 275.619995117188 247.720001220703 208.270004272461 198.220001220703 192.229995727539 190.449996948242 184.839996337891 166.100006103516 169.130004882812 169 159.220001220703 103.629997253418 118.959999084473 158.649993896484 187.089996337891 113.529998779297 96.8000030517578 94.0100021362305 106.830001831055 123.959999084473 164.570007324219 164.570007324219 194.470001220703 113.209999084473 176.520004272461 173.25 208.190002441406 174.669998168945 220.449996948242 218.550003051758 175.990005493164 211.979995727539 233.449996948242 356.269989013672 445.309997558594 454.019989013672 370.640014648438 308.179992675781 420.739990234375 372.559997558594 249.649993896484 407.739990234375 428.579986572266 292.730010986328 195.339996337891 195.440002441406 235.429992675781 235.830001831055 171.029998779297 286.880004882812 472.190002441406 548.77001953125 344.790008544922 477.299987792969 506.079986572266 344.619995117188 368.839996337891 540.239990234375 550.179992675781 436.940002441406 408.709991455078 513.72998046875 391.089996337891 390.690002441406 376.040008544922 422.040008544922 411.679992675781 310.619995117188 342.730010986328 391.399993896484 376.160003662109 586.380004882812 328.940002441406 91.2298812866211 13.1999998092651 -3.4e+38 -3.4e+38
-3.4e+38 -3.4e+38 -3.4e+38 -3.4e+38 -3.4e+38 -3.4e+38 -3.4e+38 -3.4e+38 -3.4e+38 -3.4e+38 -3.4e+38 -3.4e+38 -3.4e+38 -3.4e+38 -3.4e+38 -3.4e+38 -3.4e+38 -3.4e+38 -3.4e+38 -3.4e+38 -3.4e+38 -3.4e+38 -3.4e+38 -3.4e+38 -3.4e+38 -3.4e+38 -3.4e+38 -3.4e+38 -3.4e+38 -3.4e+38 -3.4e+38 -3.4e+38 201 1096.24743652344 4009.63989257812 4013.23999023438 3517.5400390625 2206.169921875 1032.25 295.570007324219 731.570007324219 251.610000610352 403.429992675781 360.480010986328 297.279998779297 317.549987792969 284.890014648438 253.720001220703 238.570007324219 196.479995727539 195.399993896484 187.979995727539 192.5 195.550003051758 175.429992675781 145.860000610352 155.720001220703 171.990005493164 165.990005493164 165.600006103516 139.270004272461 138.770004272461 135.369995117188 141.139999389648 196.080001831055 199.75 219.570007324219 207.100006103516 170.289993286133 184.160003662109 213.179992675781 259.5 210.479995727539 224.820007324219 302.700012207031 227.789993286133 190.740005493164 214.770004272461 227.809997558594 340.510009765625 453.649993896484 367.899993896484 375.690002441406 374.440002441406 248.25 253.860000610352 361.649993896484 358.399993896484 252.220001220703 195.520004272461 267.720001220703 294.739990234375 202.649993896484 231.320007324219 310.109985351562 381.209991455078 565.070007324219 431.339996337891 459.119995117188 470.100006103516 385.630004882812 558.650024414062 514.289978027344 491.369995117188 462.309997558594 450.600006103516 465.730010986328 562.599975585938 479.130004882812 436.309997558594 449.640014648438 423.309997558594 308.5 227.639999389648 179.770004272461 240.929992675781 315.790008544922 108.698921203613 16.625 -3.4e+38 -3.4e+38 -3.4e+38
-3.4e+38 -3.4e+38 -3.4e+38 -3.4e+38 -3.4e+38 -3.4e+38 -3.4e+38 -3.4e+38 -3.4e+38 -3.4e+38 -3.4e+38 -3.4e+38 -3.4e+38 -3.4e+38 -3.4e+38 -3.4e+38 -3.4e+38 -3.4e+38 -3.4e+38 -3.4e+38 -3.4e+38 -3.4e+38 -3.4e+38 -3.4e+38 -3.4e+38 -3.4e+38 -3.4e+38 -3.4e+38 -3.4e+38 -3.4e+38 -3.4e+38 -3.4e+38 -3.4e+38 537 2816.46997070312 3878.18994140625 3710.830078125 3352.61010742188 1613.81005859375 348.649993896484 679.039978027344 388.790008544922 423.880004882812 481.799987792969 453.890014648438 378.089996337891 296.220001220703 290.390014648438 281.600006103516 210.139999389648 198.320007324219 195.440002441406 198.089996337891 192.479995727539 188.119995117188 169.509994506836 159.990005493164 164.289993286133 131.970001220703 162.169998168945 176.550003051758 176.699996948242 217.949996948242 202.809997558594 208.320007324219 202.270004272461 324.519989013672 240.800003051758 179.639999389648 200.149993896484 208.259994506836 222.729995727539 212.589996337891 244.570007324219 302.109985351562 255.339996337891 301.279998779297 325.149993896484 228.320007324219 263.399993896484 356.200012207031 429.589996337891 379.700012207031 244.559997558594 302.559997558594 277.209991455078 404.859985351562 316.100006103516 191.669998168945 190.289993286133 260.100006103516 311.130004882812 229.210006713867 334.100006103516 335.130004882812 337.739990234375 569.75 625.450012207031 692.830017089844 555.849975585938 439.670013427734 480.190002441406 551.799987792969 453.790008544922 429.769989013672 466.75 609.059997558594 755.440002441406 672.549987792969 544.010009765625 491.450012207031 478.779998779297 417.609985351562 287.380004882812 255.690002441406 129.830001831055 86.7448959350586 40.3478279113770 -3.4e+38 -3.4e+38 -3.4e+38 -3.4e+38
-3.4e+38 -3.4e+38 -3.4e+38 -3.4e+38 -3.4e+38 -3.4e+38 -3.4e+38 -3.4e+38 -3.4e+38 -3.4e+38 -3.4e+38 -3.4e+38 -3.4e+38 -3.4e+38 -3.4e+38 -3.4e+38 -3.4e+38 -3.4e+38 -3.4e+38 -3.4e+38 -3.4e+38 -3.4e+38 -3.4e+38 -3.4e+38 -3.4e+38 -3.4e+38 -3.4e+38 -3.4e+38 -3.4e+38 -3.4e+38 -3.4e+38 -3.4e+38 -3.4e+38 231.416671752930 1085.61462402344 3520.55004882812 3752.8798828125 3958.15991210938 2553.18994140625 719.109985351562 1021.77001953125 615.280029296875 358.190002441406 377.200012207031 454.049987792969 372.390014648438 331.679992675781 346.799987792969 296.079986572266 253.639999389648 277.339996337891 262.720001220703 214.610000610352 192.75 188.990005493164 178.529998779297 181.960006713867 154.119995117188 136.059997558594 186.619995117188 227.759994506836 307.850006103516 407.940002441406 262.779998779297 247.119995117188 212.440002441406 333.359985351562 262.519989013672 217.309997558594 246.770004272461 213.910003662109 251.259994506836 219.270004272461 212.509994506836 285.649993896484 328.380004882812 311.350006103516 302.070007324219 343.540008544922 362.190002441406 332.170013427734 345.119995117188 313.899993896484 252.990005493164 320.029998779297 302.079986572266 319.149993896484 266.779998779297 183.080001831055 201.320007324219 266.890014648438 302.209991455078 247.899993896484 380.359985351562 407.779998779297 450.5 559.969970703125 697.400024414062 725.309997558594 537.150024414062 577.909973144531 574.140014648438 520.169982910156 446.390014648438 460.170013427734 460.899993896484 697.239990234375 601.52001953125 704.309997558594 437.070007324219 358.070007324219 372.609985351562 373.880004882812 327.359985351562 211.330001831055 66.3764724731445 26.8571434020996 -3.4e+38 -3.4e+38 -3.4e+38 -3.4e+38 -3.4e+38
-3.4e+38 -3.4e+38 -3.4e+38 -3.4e+38 -3.4e+38 -3.4e+38 -3.4e+38 -3.4e+38 -3.4e+38 -3.4e+38 -3.4e+38 -3.4e+38 -3.4e+38 -3.4e+38 -3.4e+38 -3.4e+38 -3.4e+38 -3.4e+38 -3.4e+38 -3.4e+38 -3.4e+38 -3.4e+38 -3.4e+38 -3.4e+38 -3.4e+38 -3.4e+38 -3.4e+38 -3.4e+38 -3.4e+38 -3.4e+38 -3.4e+38 -3.4e+38 -3.4e+38 -3.4e+38 454.918029785156 2168.69995117188 4242.22998046875 4048.28002929688 2385.30004882812 2078.05004882812 755.47998046875 498.489990234375 710.799987792969 434.670013427734 365.420013427734 462.399993896484 433.290008544922 353.570007324219 301.820007324219 293.179992675781 279.929992675781 249.100006103516 255.860000610352 229.050003051758 181.809997558594 167.830001831055 149.110000610352 172.940002441406 183.630004882812 196.229995727539 197.960006713867 210.490005493164 358.869995117188 306.589996337891 258.399993896484 205 253.830001831055 274.859985351562 298.040008544922 307.309997558594 247.600006103516 283.600006103516 243.339996337891 270.559997558594 257.709991455078 317.510009765625 329.920013427734 319.899993896484 302.920013427734 356.630004882812 321.690002441406 289.269989013672 251.25 263.959991455078 319.700012207031 305.779998779297 278.540008544922 245.850006103516 189.25 207.229995727539 259.959991455078 307.5 256.989990234375 370.470001220703 567.330017089844 562.630004882812 777.099975585938 778.409973144531 700.239990234375 596.130004882812 455.970001220703 458.070007324219 453.619995117188 408.989990234375 728.679992675781 665.450012207031 719.47998046875 741.580017089844 622.119995117188 421.209991455078 386.100006103516 271.160003662109 232.610000610352 218.880004882812 103.888885498047 7.9523811340332 -3.4e+38 -3.4e+38 -3.4e+38 -3.4e+38 -3.4e+38 -3.4e+38
-3.4e+38 -3.4e+38 -3.4e+38 -3.4e+38 -3.4e+38 -3.4e+38 -3.4e+38 -3.4e+38 -3.4e+38 -3.4e+38 -3.4e+38 -3.4e+38 -3.4e+38 -3.4e+38 -3.4e+38 -3.4e+38 -3.4e+38 -3.4e+38 -3.4e+38 -3.4e+38 -3.4e+38 -3.4e+38 -3.4e+38 -3.4e+38 -3.4e+38 -3.4e+38 -3.4e+38 -3.4e+38 -3.4e+38 -3.4e+38 -3.4e+38 -3.4e+38 -3.4e+38 -3.4e+38 108 915.279052734375 3560.46997070312 4219.85009765625 4300.16015625 4476.60009765625 3130.51000976562 629.119995117188 1119 492.299987792969 426.459991455078 437.269989013672 401 379.149993896484 292.329986572266 283.709991455078 275.459991455078 261.100006103516 214.449996948242 189.259994506836 179.539993286133 189.910003662109 179.179992675781 189.759994506836 187.050003051758 163.039993286133 183.429992675781 200.350006103516 259.239990234375 216.369995117188 259.929992675781 261.390014648438 224.210006713867 245.279998779297 356.040008544922 382.619995117188 338.799987792969 357.160003662109 313.790008544922 282.160003662109 292.739990234375 325.429992675781 374.529998779297 362.040008544922 361.799987792969 380.239990234375 358.029998779297 293.730010986328 261.670013427734 285.519989013672 283.329986572266 338.369995117188 340.309997558594 270.929992675781 199.479995727539 217.660003662109 275.160003662109 329.660003662109 278.970001220703 349.489990234375 450.100006103516 543.690002441406 680.989990234375 832.989990234375 727.030029296875 591.369995117188 473.269989013672 490.589996337891 498.649993896484 493.859985351562 935.719970703125 799.760009765625 784.080017089844 852.570007324219 578.289978027344 447.589996337891 346.829986572266 300.510009765625 242.690002441406 129.179992675781 31.1333332061768 -3.4e+38 -3.4e+38 -3.4e+38 -3.4e+38 -3.4e+38 -3.4e+38 -3.4e+38
-3.4e+38 -3.4e+38 -3.4e+38 -3.4e+38 -3.4e+38 -3.4e+38 -3.4e+38 -3.4e+38 -3.4e+38 -3.4e+38 -3.4e+38 -3.4e+38 -3.4e+38 -3.4e+38 -3.4e+38 -3.4e+38 -3.4e+38 -3.4e+38 -3.4e+38 -3.4e+38 -3.4e+38 -3.4e+38 -3.4e+38 -3.4e+38 -3.4e+38 -3.4e+38 -3.4e+38 -3.4e+38 -3.4e+38 -3.4e+38 -3.4e+38 -3.4e+38 -3.4e+38 -3.4e+38 30 356.487182617188 2088.419921875 4060.94995117188 4265.64990234375 3804.25 2743.51000976562 1200.80004882812 2424.65991210938 978.619995117188 1612.41003417969 2468.03002929688 915.320007324219 417.239990234375 291.429992675781 253.5 220.809997558594 210.080001831055 196.440002441406 194.110000610352 195.740005493164 193.360000610352 196.149993896484 196.050003051758 199.630004882812 162.789993286133 171.110000610352 197.399993896484 187.119995117188 169.910003662109 214.979995727539 343.25 336.540008544922 291.880004882812 348.470001220703 439.910003662109 422.329986572266 346.600006103516 341.220001220703 351.350006103516 361.380004882812 332.309997558594 434.149993896484 338.179992675781 321.739990234375 433.619995117188 347.380004882812 270.829986572266 250.130004882812 288.190002441406 297.380004882812 296.559997558594 355.950012207031 262.019989013672 199.630004882812 242.520004272461 333.320007324219 367.660003662109 285.049987792969 353.619995117188 496.140014648438 480.269989013672 651.630004882812 840.400024414062 739.409973144531 626.239990234375 688.280029296875 717.440002441406 574.280029296875 583.039978027344 780.25 1066.0400390625 825.469970703125 613.530029296875 490.779998779297 313.910003662109 285.010009765625 189.979995727539 180.020004272461 96.0531921386719 16 -3.4e+38 -3.4e+38 -3.4e+38 -3.4e+38 -3.4e+38 -3.4e+38 -3.4e+38
-3.4e+38 -3.4e+38 -3.4e+38 -3.4e+38 -3.4e+38 -3.4e+38 -3.4e+38 -3.4e+38 -3.4e+38 -3.4e+38 -3.4e+38 -3.4e+38 -3.4e+38 -3.4e+38 -3.4e+38 -3.4e+38 -3.4e+38 -3.4e+38 -3.4e+38 -3.4e+38 -3.4e+38 -3.4e+38 -3.4e+38 -3.4e+38 -3.4e+38 -3.4e+38 -3.4e+38 -3.4e+38 -3.4e+38 -3.4e+38 -3.4e+38 -3.4e+38 -3.4e+38 -3.4e+38 -3.4e+38 -3.4e+38 830.243225097656 2833.40991210938 4603.35009765625 4244.330078125 3397.46997070312 2992.4599609375 1604.93005371094 1515.59997558594 1577.36999511719 2770.03002929688 1683.78002929688 787.239990234375 413.980010986328 290.429992675781 235.210006713867 222.570007324219 210.039993286133 204.229995727539 200.389999389648 192.860000610352 201.729995727539 198.059997558594 198.830001831055 169.080001831055 163.729995727539 165.919998168945 180.479995727539 165.789993286133 213.899993896484 192.169998168945 265.679992675781 315.649993896484 439.130004882812 534.880004882812 390.890014648438 384.220001220703 390.089996337891 395.019989013672 389.269989013672 371.010009765625 426.25 321.609985351562 338.160003662109 384.980010986328 305.929992675781 287.170013427734 278.089996337891 268.440002441406 298.279998779297 307.869995117188 319.079986572266 243.029998779297 216.759994506836 333.799987792969 415.649993896484 386.859985351562 378.079986572266 293.309997558594 352.170013427734 492.679992675781 596.760009765625 837.650024414062 696.359985351562 706.25 765.630004882812 646.320007324219 455.239990234375 608.909973144531 585.210021972656 1068.68994140625 865.119995117188 483.510009765625 378.959991455078 287.720001220703 238.630004882812 133.720001220703 42.1518974304199 22.3714294433594 -3.4e+38 -3.4e+38 -3.4e+38 -3.4e+38 -3.4e+38 -3.4e+38 -3.4e+38 -3.4e+38
-3.4e+38 -3.4e+38 -3.4e+38 -3.4e+38 -3.4e+38 -3.4e+38 -3.4e+38 -3.4e+38 -3.4e+38 -3.4e+38 -3.4e+38 -3.4e+38 -3.4e+38 -3.4e+38 -3.4e+38 -3.4e+38 -3.4e+38 -3.4e+38 -3.4e+38 -3.4e+38 -3.4e+38 -3.4e+38 -3.4e+38 -3.4e+38 -3.4e+38 -3.4e+38 -3.4e+38 -3.4e+38 -3.4e+38 -3.4e+38 -3.4e+38 -3.4e+38 -3.4e+38 -3.4e+38 -3.4e+38 -3.4e+38 144.058822631836 1517.08337402344 3696.419921875 4571.47021484375 3978.76000976562 3419.47998046875 2716.28002929688 3534.39990234375 3322.5 3873.72998046875 2981.71997070312 1925.64001464844 906.950012207031 721.25 455.619995117188 434.730010986328 305.850006103516 210.009994506836 199.110000610352 193.960006713867 200.300003051758 198.619995117188 192.800003051758 191.300003051758 195.860000610352 198.020004272461 201.830001831055 205.679992675781 195.940002441406 191 199.149993896484 247.690002441406 362.390014648438 466.220001220703 494.299987792969 448.540008544922 459.600006103516 457.329986572266 413.690002441406 392.700012207031 355.589996337891 390.809997558594 388.640014648438 388.959991455078 351.579986572266 322.709991455078 303.519989013672 296.589996337891 302.209991455078 368.230010986328 344.450012207031 255.199996948242 250.050003051758 410.190002441406 510.109985351562 475.279998779297 528.929992675781 404.299987792969 432.429992675781 503.570007324219 603.799987792969 852.419982910156 761.679992675781 698.929992675781 662 540.950012207031 447.559997558594 606.840026855469 698.780029296875 965.47998046875 954.450012207031 647.460021972656 546.969970703125 670.440002441406 375.410003662109 121.698791503906 5.40000009536743 -3.4e+38 -3.4e+38 -3.4e+38 -3.4e+38 -3.4e+38 -3.4e+38 -3.4e+38 -3.4e+38 -3.4e+38
-3.4e+38 -3.4e+38 -3.4e+38 -3.4e+38 -3.4e+38 -3.4e+38 -3.4e+38 -3.4e+38 -3.4e+38 -3.4e+38 -3.4e+38 -3.4e+38 -3.4e+38 -3.4e+38 -3.4e+38 -3.4e+38 -3.4e+38 -3.4e+38 -3.4e+38 -3.4e+38 -3.4e+38 -3.4e+38 -3.4e+38 -3.4e+38 -3.4e+38 -3.4e+38 -3.4e+38 -3.4e+38 -3.4e+38 -3.4e+38 -3.4e+38 -3.4e+38 -3.4e+38 -3.4e+38 -3.4e+38 -3.4e+38 140.199996948242 469.329559326172 2322.19995117188 4048.57006835938 4077.52001953125 3610.69995117188 3503.2099609375 3442.51000976562 3638.65991210938 3631.830078125 3951.669921875 4509.919921875 3195.080078125 1840.31005859375 1197.92004394531 888.679992675781 673.609985351562 337.489990234375 196.479995727539 203.759994506836 202.380004882812 197.610000610352 173.850006103516 170.190002441406 182.820007324219 199.949996948242 206.410003662109 216.139999389648 295.410003662109 278.890014648438 196.309997558594 235.479995727539 257.570007324219 393.190002441406 576.950012207031 571.75 541.989990234375 549 502.980010986328 432.130004882812 351.040008544922 431.359985351562 459.890014648438 426.25 414.929992675781 421.220001220703 353.739990234375 314.529998779297 344.839996337891 456.320007324219 308.220001220703 271.640014648438 279.100006103516 305.230010986328 572.539978027344 604.27001953125 536.989990234375 432.850006103516 837.239990234375 579.330017089844 549.219970703125 860.549987792969 750.559997558594 684.27001953125 640.309997558594 634.330017089844 456.519989013672 590.400024414062 884.280029296875 739.989990234375 743.97998046875 529.219970703125 478.320007324219 515.679992675781 286.75 84 -3.4e+38 -3.4e+38 -3.4e+38 -3.4e+38 -3.4e+38 -3.4e+38 -3.4e+38 -3.4e+38 -3.4e+38 -3.4e+38
-3.4e+38 -3.4e+38 -3.4e+38 -3.4e+38 -3.4e+38 -3.4e+38 -3.4e+38 -3.4e+38 -3.4e+38 -3.4e+38 -3.4e+38 -3.4e+38 -3.4e+38 -3.4e+38 -3.4e+38 -3.4e+38 -3.4e+38 -3.4e+38 -3.4e+38 -3.4e+38 -3.4e+38 -3.4e+38 -3.4e+38 -3.4e+38 -3.4e+38 -3.4e+38 -3.4e+38 -3.4e+38 -3.4e+38 -3.4e+38 -3.4e+38 -3.4e+38 -3.4e+38 -3.4e+38 -3.4e+38 -3.4e+38 -3.4e+38 441.731719970703 1005.09997558594 2626.64990234375 3967.1298828125 3989.59008789062 4025.55004882812 3983.01000976562 4236.4501953125 3893.919921875 4053.76000976562 4621.43017578125 4526.2001953125 4472.97998046875 2997.81005859375 2025.7900390625 1188.90002441406 767.25 296.5 219.809997558594 198.149993896484 187.440002441406 172.649993896484 161.169998168945 171.339996337891 199.539993286133 215.699996948242 226.580001831055 252.979995727539 229.580001831055 199.660003662109 233.550003051758 418.100006103516 230.139999389648 506.570007324219 656.369995117188 637.309997558594 614.510009765625 517.099975585938 412.839996337891 411 427.730010986328 458.399993896484 443.609985351562 468.670013427734 560.700012207031 492.260009765625 536.150024414062 513.25 432.390014648438 302.950012207031 285.239990234375 296.519989013672 379.700012207031 566.609985351562 624.869995117188 514.669982910156 595.52001953125 955.280029296875 546.090026855469 570.719970703125 816.27001953125 762.309997558594 702.070007324219 599.710021972656 496.429992675781 467.679992675781 543.330017089844 756.690002441406 571.820007324219 511.399993896484 413.369995117188 496.359985351562 432.589996337891 191.449996948242 73.8888854980469 -3.4e+38 -3.4e+38 -3.4e+38 -3.4e+38 -3.4e+38 -3.4e+38 -3.4e+38 -3.4e+38 -3.4e+38 -3.4e+38
-3.4e+38 -3.4e+38 -3.4e+38 -3.4e+38 -3.4e+38 -3.4e+38 -3.4e+38 -3.4e+38 -3.4e+38 -3.4e+38 -3.4e+38 -3.4e+38 -3.4e+38 -3.4e+38 -3.4e+38 -3.4e+38 -3.4e+38 -3.4e+38 -3.4e+38 -3.4e+38 -3.4e+38 -3.4e+38 -3.4e+38 -3.4e+38 -3.4e+38 -3.4e+38 -3.4e+38 -3.4e+38 -3.4e+38 -3.4e+38 -3.4e+38 -3.4e+38 -3.4e+38 -3.4e+38 -3.4e+38 -3.4e+38 -3.4e+38 420.882354736328 411.727264404297 945.390014648438 3290.65991210938 3910.93994140625 4346.14990234375 4571.06005859375 4803.93017578125 4425.0400390625 4188.77001953125 4281.6298828125 4116.080078125 4282.72998046875 4570.85986328125 3678.28002929688 1912.63000488281 1050.77001953125 541.5 234.100006103516 229.800003051758 216.399993896484 196.850006103516 165.339996337891 168.630004882812 203.880004882812 219.970001220703 241.089996337891 251.210006713867 227.039993286133 215.110000610352 208.729995727539 448.390014648438 292.760009765625 385.019989013672 668.880004882812 638.760009765625 432.040008544922 274.410003662109 254.600006103516 304.350006103516 296.209991455078 369.399993896484 452.329986572266 592.080017089844 623.429992675781 609.619995117188 599.200012207031 480.920013427734 345.279998779297 308.510009765625 285.579986572266 345.609985351562 466.480010986328 673.809997558594 561.429992675781 764.27001953125 869.919982910156 944.950012207031 531.619995117188 707.890014648438 793.849975585938 779.330017089844 729.72998046875 691.359985351562 520.969970703125 527.109985351562 565.090026855469 720.849975585938 648.510009765625 689.859985351562 680.059997558594 786.570007324219 464.959991455078 207.619995117188 69.2075500488281 -3.4e+38 -3.4e+38 -3.4e+38 -3.4e+38 -3.4e+38 -3.4e+38 -3.4e+38 -3.4e+38 -3.4e+38 -3.4e+38
-3.4e+38 -3.4e+38 -3.4e+38 -3.4e+38 -3.4e+38 -3.4e+38 -3.4e+38 -3.4e+38 -3.4e+38 -3.4e+38 -3.4e+38 -3.4e+38 -3.4e+38 -3.4e+38 -3.4e+38 -3.4e+38 -3.4e+38 -3.4e+38 -3.4e+38 -3.4e+38 -3.4e+38 -3.4e+38 -3.4e+38 -3.4e+38 -3.4e+38 -3.4e+38 -3.4e+38 -3.4e+38 -3.4e+38 -3.4e+38 -3.4e+38 -3.4e+38 -3.4e+38 -3.4e+38 -3.4e+38 -3.4e+38 -3.4e+38 -3.4e+38 521.583312988281 642.4111328125 1587.23999023438 2986.92993164062 3731.78002929688 4019.71997070312 4539.5400390625 4762.68994140625 4480.759765625 4588.60009765625 4292.27001953125 3962.25 4095.10009765625 4058.330078125 2044.91003417969 905.400024414062 738.75 730.25 756.309997558594 407.350006103516 270.149993896484 183.669998168945 166.529998779297 209.539993286133 215.410003662109 243.220001220703 255.729995727539 249.139999389648 250.350006103516 230.360000610352 220.75 240.610000610352 273.570007324219 393.760009765625 410.850006103516 283.260009765625 168.050003051758 257.809997558594 243.919998168945 346.880004882812 429.290008544922 696.929992675781 666.179992675781 588.890014648438 580.719970703125 509.410003662109 511.660003662109 371.420013427734 297.869995117188 311.75 415.779998779297 696.780029296875 597.159973144531 799.179992675781 795.190002441406 887.559997558594 904.150024414062 755.929992675781 728.47998046875 762.210021972656 756.309997558594 675.659973144531 696.950012207031 542.010009765625 513.260009765625 661.390014648438 983.820007324219 856.409973144531 831.27001953125 756.099975585938 486.369995117188 306.600006103516 205.610000610352 53.4754104614258 -3.4e+38 -3.4e+38 -3.4e+38 -3.4e+38 -3.4e+38 -3.4e+38 -3.4e+38 -3.4e+38 -3.4e+38 -3.4e+38
-3.4e+38 -3.4e+38 -3.4e+38 -3.4e+38 -3.4e+38 -3.4e+38 -3.4e+38 -3.4e+38 -3.4e+38 -3.4e+38 -3.4e+38 -3.4e+38 -3.4e+38 -3.4e+38 -3.4e+38 -3.4e+38 -3.4e+38 -3.4e+38 -3.4e+38 -3.4e+38 -3.4e+38 -3.4e+38 -3.4e+38 -3.4e+38 -3.4e+38 -3.4e+38 -3.4e+38 -3.4e+38 -3.4e+38 -3.4e+38 -3.4e+38 -3.4e+38 -3.4e+38 -3.4e+38 -3.4e+38 -3.4e+38 -3.4e+38 -3.4e+38 -3.4e+38 94.7142868041992 670.730773925781 1889.23156738281 2647.93994140625 2516.69995117188 3547.72998046875 3992.77001953125 4422.009765625 4515.10009765625 4311.240234375 3942.02001953125 3838.85009765625 3885.30004882812 3327.0400390625 1760.76000976562 1097.23999023438 1229.81994628906 1416.7099609375 532.25 254.080001831055 185.389999389648 167.940002441406 199.639999389648 214.029998779297 254.699996948242 292.809997558594 274.690002441406 313.260009765625 325.149993896484 280.959991455078 223.779998779297 396.100006103516 336.540008544922 227.929992675781 210.509994506836 160.960006713867 321.989990234375 229.520004272461 171.270004272461 438.700012207031 537.969970703125 539.780029296875 611.039978027344 643 504.690002441406 445.519989013672 338.899993896484 322.670013427734 376.350006103516 422.079986572266 653.489990234375 701.239990234375 828.340026855469 962.570007324219 1086.82995605469 990.609985351562 898.070007324219 668.75 613.190002441406 615.380004882812 546.739990234375 564.429992675781 680.539978027344 571.25 718.130004882812 958.469970703125 829.460021972656 789.5 695.5 649.359985351562 365.5 180.139999389648 45.4210510253906 -3.4e+38 -3.4e+38 -3.4e+38 -3.4e+38 -3.4e+38 -3.4e+38 -3.4e+38 -3.4e+38 -3.4e+38 -3.4e+38
-3.4e+38 -3.4e+38 -3.4e+38 -3.4e+38 -3.4e+38 -3.4e+38 -3.4e+38 -3.4e+38 -3.4e+38 -3.4e+38 -3.4e+38 -3.4e+38 -3.4e+38 -3.4e+38 -3.4e+38 -3.4e+38 -3.4e+38 -3.4e+38 -3.4e+38 -3.4e+38 -3.4e+38 -3.4e+38 -3.4e+38 -3.4e+38 -3.4e+38 -3.4e+38 -3.4e+38 -3.4e+38 -3.4e+38 -3.4e+38 -3.4e+38 -3.4e+38 -3.4e+38 -3.4e+38 -3.4e+38 -3.4e+38 -3.4e+38 -3.4e+38 -3.4e+38 -3.4e+38 -3.4e+38 878.384643554688 1183.16943359375 1357.2783203125 1340.86999511719 2224.89990234375 3456.97998046875 4475.02001953125 4414.4599609375 4234.9599609375 3965.15991210938 3879.1298828125 4094.669921875 3756.85009765625 1767.05004882812 1538.80004882812 1229.83996582031 603.690002441406 240.600006103516 178.960006713867 174.669998168945 184.059997558594 252.550003051758 273.279998779297 477.109985351562 374.730010986328 420.730010986328 437.839996337891 304.170013427734 287.339996337891 342.660003662109 271.899993896484 211.070007324219 153.520004272461 271.339996337891 141.279998779297 152.220001220703 168.979995727539 324.769989013672 371.260009765625 373.779998779297 394.309997558594 595.619995117188 507.630004882812 437.119995117188 452.829986572266 439.399993896484 499.790008544922 585.140014648438 792.830017089844 863.789978027344 904.27001953125 918.200012207031 933.140014648438 920.109985351562 786.809997558594 802.700012207031 606.309997558594 564.409973144531 541.349975585938 688.77001953125 744.010009765625 658.190002441406 885.260009765625 761.359985351562 715.320007324219 702.77001953125 477.160003662109 354.200012207031 341.220001220703 165.919998168945 48 -3.4e+38 -3.4e+38 -3.4e+38 -3.4e+38 -3.4e+38 -3.4e+38 -3.4e+38 -3.4e+38 -3.4e+38 -3.4e+38
-3.4e+38 -3.4e+38 -3.4e+38 -3.4e+38 -3.4e+38 -3.4e+38 -3.4e+38 -3.4e+38 -3.4e+38 -3.4e+38 -3.4e+38 -3.4e+38 -3.4e+38 -3.4e+38 -3.4e+38 -3.4e+38 -3.4e+38 -3.4e+38 -3.4e+38 -3.4e+38 -3.4e+38 -3.4e+38 -3.4e+38 -3.4e+38 -3.4e+38 -3.4e+38 -3.4e+38 -3.4e+38 -3.4e+38 -3.4e+38 -3.4e+38 -3.4e+38 -3.4e+38 -3.4e+38 -3.4e+38 -3.4e+38 -3.4e+38 -3.4e+38 -3.4e+38 -3.4e+38 -3.4e+38 -3.4e+38 -3.4e+38 280.75 609.69384765625 1102.7958984375 2120.89990234375 3042.78002929688 4346.25 4615.08984375 4201.72998046875 3817.3701171875 4008.01000976562 3835.72998046875 3122.73999023438 2432.3798828125 3252.5400390625 1527.03002929688 370.359985351562 200.940002441406 180.990005493164 202.899993896484 214.369995117188 233.100006103516 285.910003662109 372.700012207031 438.230010986328 497.140014648438 347.25 298.429992675781 193.970001220703 157.449996948242 128.949996948242 143.830001831055 163.949996948242 124.319999694824 123.559997558594 168.369995117188 260.609985351562 304.649993896484 314.040008544922 513.950012207031 620.799987792969 573.799987792969 543.409973144531 633.539978027344 600.679992675781 592.960021972656 614.080017089844 668.030029296875 758.570007324219 859.530029296875 913.340026855469 870.460021972656 935.159973144531 807.830017089844 609.510009765625 667.369995117188 600.739990234375 559.530029296875 721.780029296875 852.940002441406 832.919982910156 858.72998046875 613.010009765625 509.059997558594 539.419982910156 474.899993896484 575.880004882812 421.100006103516 127.680000305176 38.3055572509766 -3.4e+38 -3.4e+38 -3.4e+38 -3.4e+38 -3.4e+38 -3.4e+38 -3.4e+38 -3.4e+38 -3.4e+38 -3.4e+38
-3.4e+38 -3.4e+38 -3.4e+38 -3.4e+38 -3.4e+38 -3.4e+38 -3.4e+38 -3.4e+38 -3.4e+38 -3.4e+38 -3.4e+38 -3.4e+38 -3.4e+38 -3.4e+38 -3.4e+38 -3.4e+38 -3.4e+38 -3.4e+38 -3.4e+38 -3.4e+38 -3.4e+38 -3.4e+38 -3.4e+38 -3.4e+38 -3.4e+38 -3.4e+38 -3.4e+38 -3.4e+38 -3.4e+38 -3.4e+38 -3.4e+38 -3.4e+38 -3.4e+38 -3.4e+38 -3.4e+38 -3.4e+38 -3.4e+38 -3.4e+38 -3.4e+38 -3.4e+38 -3.4e+38 -3.4e+38 -3.4e+38 -3.4e+38 -3.4e+38 322.049987792969 781.972229003906 1701.9599609375 3423.31005859375 4323.1298828125 4378.7001953125 4021.09008789062 3983.81005859375 4034.35009765625 4026.169921875 3674.0400390625 3639.93994140625 3243.35009765625 1950.39001464844 689.119995117188 363.089996337891 249.839996337891 273.519989013672 254.660003662109 252.429992675781 266.470001220703 311.390014648438 299.880004882812 315.720001220703 314.160003662109 284.269989013672 186.740005493164 131.960006713867 116.290000915527 117.919998168945 109.050003051758 112.5 127.680000305176 180.880004882812 280.190002441406 447 612.219970703125 693.690002441406 648.869995117188 688.619995117188 822.380004882812 809.830017089844 687.849975585938 619.25 600.049987792969 698.289978027344 748.659973144531 840.909973144531 797.710021972656 874.820007324219 758.429992675781 588.609985351562 586.260009765625 599.5 603.070007324219 627.780029296875 814.77001953125 889.049987792969 740.580017089844 647.5 647.190002441406 688.349975585938 445.730010986328 315.049987792969 280.570007324219 91.620002746582 13.4499998092651 -3.4e+38 -3.4e+38 -3.4e+38 -3.4e+38 -3.4e+38 -3.4e+38 -3.4e+38 -3.4e+38 -3.4e+38 -3.4e+38
-3.4e+38 -3.4e+38 -3.4e+38 -3.4e+38 -3.4e+38 -3.4e+38 -3.4e+38 -3.4e+38 -3.4e+38 -3.4e+38 -3.4e+38 -3.4e+38 -3.4e+38 -3.4e+38 -3.4e+38 -3.4e+38 -3.4e+38 -3.4e+38 -3.4e+38 -3.4e+38 -3.4e+38 -3.4e+38 -3.4e+38 -3.4e+38 -3.4e+38 -3.4e+38 -3.4e+38 -3.4e+38 -3.4e+38 -3.4e+38 -3.4e+38 -3.4e+38 -3.4e+38 -3.4e+38 -3.4e+38 -3.4e+38 -3.4e+38 -3.4e+38 -3.4e+38 -3.4e+38 -3.4e+38 -3.4e+38 -3.4e+38 -3.4e+38 -3.4e+38 -3.4e+38 572.400024414062 733.90478515625 1013.46997070312 3032.919921875 4342.81982421875 4285.31005859375 3983.9599609375 3924.86010742188 3803.25 4078.0400390625 3591.30004882812 2935.86010742188 3238.5400390625 2705.35009765625 1787.01000976562 1096 602.690002441406 362.309997558594 279.920013427734 285.410003662109 287.559997558594 292.929992675781 315.010009765625 328.559997558594 375.359985351562 374.630004882812 230.889999389648 174.5 120.220001220703 104.510002136230 117.470001220703 132.520004272461 156.75 262.019989013672 404.959991455078 495.450012207031 604.940002441406 772.119995117188 716.289978027344 758.690002441406 827.090026855469 740.010009765625 581.599975585938 563.539978027344 617.200012207031 678.609985351562 699.349975585938 821.739990234375 857.090026855469 741.52001953125 600.409973144531 669.840026855469 739.929992675781 619.580017089844 789.909973144531 853.02001953125 903.130004882812 806.609985351562 829.859985351562 803.909973144531 498.720001220703 301.760009765625 256.269989013672 153.289993286133 47.1428565979004 4.72222232818604 -3.4e+38 -3.4e+38 -3.4e+38 -3.4e+38 -3.4e+38 -3.4e+38 -3.4e+38 -3.4e+38 -3.4e+38 -3.4e+38
-3.4e+38 -3.4e+38 -3.4e+38 -3.4e+38 -3.4e+38 -3.4e+38 -3.4e+38 -3.4e+38 -3.4e+38 -3.4e+38 -3.4e+38 -3.4e+38 -3.4e+38 -3.4e+38 -3.4e+38 -3.4e+38 -3.4e+38 -3.4e+38 -3.4e+38 -3.4e+38 -3.4e+38 -3.4e+38 -3.4e+38 -3.4e+38 -3.4e+38 -3.4e+38 -3.4e+38 -3.4e+38 -3.4e+38 -3.4e+38 -3.4e+38 -3.4e+38 -3.4e+38 -3.4e+38 -3.4e+38 -3.4e+38 -3.4e+38 -3.4e+38 -3.4e+38 -3.4e+38 -3.4e+38 -3.4e+38 -3.4e+38 -3.4e+38 -3.4e+38 -3.4e+38 -3.4e+38 292.5 223.298248291016 1443.18994140625 3971.73999023438 4583.41015625 4091.48999023438 3907.52001953125 3781.73999023438 3841.09008789062 3945.72998046875 3321.60009765625 2516.15991210938 2145.6298828125 1921.0400390625 1758.77001953125 1039.88000488281 430.609985351562 308.779998779297 302.140014648438 283.670013427734 292 364.029998779297 464.779998779297 341.910003662109 386.260009765625 355.959991455078 293.549987792969 199.529998779297 105.029998779297 118.690002441406 137.240005493164 155.160003662109 223.360000610352 359.929992675781 391.690002441406 531.150024414062 749.630004882812 673.799987792969 641.059997558594 624.469970703125 630.859985351562 597.049987792969 559.700012207031 607.359985351562 635.650024414062 617.330017089844 721.47998046875 703.409973144531 774.97998046875 805.940002441406 833.640014648438 691.099975585938 665.52001953125 679.080017089844 905.369995117188 1104.80004882812 887.450012207031 624.330017089844 459.220001220703 511.649993896484 455.980010986328 228.960006713867 75.9899978637695 13.1315793991089 1 1 -3.4e+38 -3.4e+38 -3.4e+38 -3.4e+38 -3.4e+38 -3.4e+38 -3.4e+38 -3.4e+38 -3.4e+38
-3.4e+38 -3.4e+38 -3.4e+38 -3.4e+38 -3.4e+38 -3.4e+38 -3.4e+38 -3.4e+38 -3.4e+38 -3.4e+38 -3.4e+38 -3.4e+38 -3.4e+38 -3.4e+38 -3.4e+38 -3.4e+38 -3.4e+38 -3.4e+38 -3.4e+38 -3.4e+38 -3.4e+38 -3.4e+38 -3.4e+38 -3.4e+38 -3.4e+38 -3.4e+38 -3.4e+38 -3.4e+38 -3.4e+38 -3.4e+38 -3.4e+38 -3.4e+38 -3.4e+38 -3.4e+38 -3.4e+38 -3.4e+38 -3.4e+38 -3.4e+38 -3.4e+38 -3.4e+38 -3.4e+38 -3.4e+38 -3.4e+38 -3.4e+38 -3.4e+38 -3.4e+38 -3.4e+38 -3.4e+38 511.636352539062 1140.07995605469 3340.09008789062 4281.18994140625 3853.57006835938 3715.92993164062 3729.26000976562 3721.01000976562 4080.15991210938 3761.73999023438 3016.75 2247.30004882812 1854.48999023438 1781.02001953125 822.169982910156 370.059997558594 336.609985351562 372.670013427734 314.019989013672 314.890014648438 307.079986572266 310.540008544922 276.160003662109 242.979995727539 241.169998168945 227.110000610352 113.389999389648 93.9599990844727 108.489997863770 122.089996337891 129.300003051758 276.070007324219 348.410003662109 392.670013427734 562.320007324219 675.950012207031 682.840026855469 611.700012207031 542.409973144531 550.070007324219 503.950012207031 537.869995117188 582.22998046875 648.960021972656 723.669982910156 792.090026855469 844.659973144531 938.280029296875 896.179992675781 876.539978027344 671.179992675781 643.510009765625 635.950012207031 782.97998046875 977.940002441406 800.849975585938 734.419982910156 357.869995117188 389.440002441406 475.760009765625 227.800003051758 65.9199981689453 1.90909087657928 -3.4e+38 -3.4e+38 -3.4e+38 -3.4e+38 -3.4e+38 -3.4e+38 -3.4e+38 -3.4e+38 -3.4e+38 -3.4e+38 -3.4e+38
-3.4e+38 -3.4e+38 -3.4e+38 -3.4e+38 -3.4e+38 -3.4e+38 -3.4e+38 -3.4e+38 -3.4e+38 -3.4e+38 -3.4e+38 -3.4e+38 -3.4e+38 -3.4e+38 -3.4e+38 -3.4e+38 -3.4e+38 -3.4e+38 -3.4e+38 -3.4e+38 -3.4e+38 -3.4e+38 -3.4e+38 -3.4e+38 -3.4e+38 -3.4e+38 -3.4e+38 -3.4e+38 -3.4e+38 -3.4e+38 -3.4e+38 -3.4e+38 -3.4e+38 -3.4e+38 -3.4e+38 -3.4e+38 -3.4e+38 -3.4e+38 -3.4e+38 -3.4e+38 -3.4e+38 -3.4e+38 -3.4e+38 -3.4e+38 -3.4e+38 -3.4e+38 -3.4e+38 -3.4e+38 195 1027.73474121094 2557.64990234375 4203.669921875 3916.25 3649.419921875 3694.73999023438 3704.76000976562 4309.7998046875 4021.93994140625 3396.89990234375 2754.65991210938 2508.330078125 1443.41003417969 864.619995117188 561.450012207031 416.190002441406 380.170013427734 341.070007324219 304.329986572266 292.559997558594 255.990005493164 290.809997558594 273.730010986328 158.889999389648 200.509994506836 164.210006713867 81.629997253418 90.8300018310547 98.370002746582 104.360000610352 295.179992675781 538.789978027344 420.739990234375 569.289978027344 599.840026855469 537.349975585938 562.419982910156 548.419982910156 430.160003662109 448.959991455078 570.700012207031 600.919982910156 618.869995117188 746.77001953125 866.859985351562 899.27001953125 904.559997558594 921.849975585938 910.679992675781 688.849975585938 652.450012207031 779.52001953125 738.039978027344 948.909973144531 685.320007324219 489.239990234375 378.350006103516 426.980010986328 395.769989013672 264.190002441406 45.4300003051758 1.73684215545654 -3.4e+38 -3.4e+38 -3.4e+38 -3.4e+38 -3.4e+38 -3.4e+38 -3.4e+38 -3.4e+38 -3.4e+38 -3.4e+38 -3.4e+38
-3.4e+38 -3.4e+38 -3.4e+38 -3.4e+38 -3.4e+38 -3.4e+38 -3.4e+38 -3.4e+38 -3.4e+38 -3.4e+38 -3.4e+38 -3.4e+38 -3.4e+38 -3.4e+38 -3.4e+38 -3.4e+38 -3.4e+38 -3.4e+38 -3.4e+38 -3.4e+38 -3.4e+38 -3.4e+38 -3.4e+38 -3.4e+38 -3.4e+38 -3.4e+38 -3.4e+38 -3.4e+38 -3.4e+38 -3.4e+38 -3.4e+38 -3.4e+38 -3.4e+38 -3.4e+38 -3.4e+38 -3.4e+38 -3.4e+38 -3.4e+38 -3.4e+38 -3.4e+38 -3.4e+38 -3.4e+38 -3.4e+38 -3.4e+38 -3.4e+38 -3.4e+38 -3.4e+38 -3.4e+38 -3.4e+38 1013.98748779297 1765.08996582031 3850.13989257812 4076.30004882812 3717.38989257812 3761.6298828125 3776.89990234375 4327.60009765625 4176.85986328125 3669.88989257812 3132.02001953125 2602 1513.83996582031 1132.26000976562 666.419982910156 479.279998779297 393.079986572266 311.769989013672 233.559997558594 178.190002441406 203.259994506836 222.110000610352 206.580001831055 108.269996643066 89.6500015258789 90.9000015258789 125.699996948242 93 96.1100006103516 149.020004272461 352.970001220703 481.5 546.27001953125 486.390014648438 462.089996337891 419.829986572266 468.940002441406 511.880004882812 387.950012207031 430.100006103516 453.160003662109 487.059997558594 586.719970703125 649.650024414062 740.260009765625 868.299987792969 1036.33996582031 1050.83996582031 912.640014648438 743 720.099975585938 835.75 858.150024414062 915.080017089844 774.070007324219 392.029998779297 682.650024414062 413.209991455078 363.519989013672 303.579986572266 30.7837829589844 1 -3.4e+38 -3.4e+38 -3.4e+38 -3.4e+38 -3.4e+38 -3.4e+38 -3.4e+38 -3.4e+38 -3.4e+38 -3.4e+38 -3.4e+38
-3.4e+38 -3.4e+38 -3.4e+38 -3.4e+38 -3.4e+38 -3.4e+38 -3.4e+38 -3.4e+38 -3.4e+38 -3.4e+38 -3.4e+38 -3.4e+38 -3.4e+38 -3.4e+38 -3.4e+38 -3.4e+38 -3.4e+38 -3.4e+38 -3.4e+38 -3.4e+38 -3.4e+38 -3.4e+38 -3.4e+38 -3.4e+38 -3.4e+38 -3.4e+38 -3.4e+38 -3.4e+38 -3.4e+38 -3.4e+38 -3.4e+38 -3.4e+38 -3.4e+38 -3.4e+38 -3.4e+38 -3.4e+38 -3.4e+38 -3.4e+38 -3.4e+38 -3.4e+38 -3.4e+38 -3.4e+38 -3.4e+38 -3.4e+38 -3.4e+38 -3.4e+38 -3.4e+38 -3.4e+38 -3.4e+38 919.191772460938 1311.56005859375 3528.38989257812 4094.2099609375 3636.76000976562 3624.26000976562 3679.30004882812 4070.73999023438 3757.8701171875 3232.73999023438 3449.03002929688 2469.43994140625 1405.26000976562 1049.71997070312 663.75 459.269989013672 366.029998779297 300.510009765625 231.149993896484 170.919998168945 148.580001831055 142.869995117188 124.400001525879 91.0999984741211 81.2099990844727 95.370002746582 284.269989013672 187.800003051758 161.139999389648 283.239990234375 312.779998779297 528.710021972656 503.940002441406 399.269989013672 330.869995117188 394.109985351562 340.790008544922 361.950012207031 348.309997558594 430.109985351562 459.089996337891 461.380004882812 482.390014648438 532.869995117188 576.190002441406 752.799987792969 880.609985351562 1016.64001464844 847.219970703125 848.820007324219 862.530029296875 896.989990234375 995.030029296875 1033.81994628906 625.580017089844 545.090026855469 846.080017089844 811.210021972656 870.010009765625 443.232330322266 35.7142868041992 -3.4e+38 -3.4e+38 -3.4e+38 -3.4e+38 -3.4e+38 -3.4e+38 -3.4e+38 -3.4e+38 -3.4e+38 -3.4e+38 -3.4e+38 -3.4e+38
-3.4e+38 -3.4e+38 -3.4e+38 -3.4e+38 -3.4e+38 -3.4e+38 -3.4e+38 -3.4e+38 -3.4e+38 -3.4e+38 -3.4e+38 -3.4e+38 -3.4e+38 -3.4e+38 -3.4e+38 -3.4e+38 -3.4e+38 -3.4e+38 -3.4e+38 -3.4e+38 -3.4e+38 -3.4e+38 -3.4e+38 -3.4e+38 -3.4e+38 -3.4e+38 -3.4e+38 -3.4e+38 -3.4e+38 -3.4e+38 -3.4e+38 -3.4e+38 -3.4e+38 -3.4e+38 -3.4e+38 -3.4e+38 -3.4e+38 -3.4e+38 -3.4e+38 -3.4e+38 -3.4e+38 -3.4e+38 -3.4e+38 -3.4e+38 -3.4e+38 -3.4e+38 -3.4e+38 -3.4e+38 -3.4e+38 804.320495605469 1051.01000976562 2973.17993164062 4144.35986328125 3828.0400390625 3729.63989257812 3652.90991210938 3815.4599609375 3759.02001953125 3110.56005859375 3128.57006835938 2123.35009765625 1080.89001464844 1138.30004882812 613.789978027344 417.549987792969 323.489990234375 251.190002441406 203.509994506836 166.100006103516 130.440002441406 106.25 90.5800018310547 79.9800033569336 78.75 113.720001220703 292.100006103516 325.769989013672 192.550003051758 267.619995117188 331.359985351562 534.960021972656 490.940002441406 351.929992675781 347 320.890014648438 319.679992675781 311.540008544922 356.510009765625 409.440002441406 456.410003662109 468.320007324219 489.850006103516 573.289978027344 591.080017089844 768.289978027344 879.559997558594 841.380004882812 879.409973144531 869.239990234375 944.159973144531 1004.35998535156 973.570007324219 919.669982910156 652.859985351562 910.880004882812 826.179992675781 626.099975585938 473.309997558594 228.745101928711 -3.4e+38 -3.4e+38 -3.4e+38 -3.4e+38 -3.4e+38 -3.4e+38 -3.4e+38 -3.4e+38 -3.4e+38 -3.4e+38 -3.4e+38 -3.4e+38 -3.4e+38
-3.4e+38 -3.4e+38 -3.4e+38 -3.4e+38 -3.4e+38 -3.4e+38 -3.4e+38 -3.4e+38 -3.4e+38 -3.4e+38 -3.4e+38 -3.4e+38 -3.4e+38 -3.4e+38 -3.4e+38 -3.4e+38 -3.4e+38 -3.4e+38 -3.4e+38 -3.4e+38 -3.4e+38 -3.4e+38 -3.4e+38 -3.4e+38 -3.4e+38 -3.4e+38 -3.4e+38 -3.4e+38 -3.4e+38 -3.4e+38 -3.4e+38 -3.4e+38 -3.4e+38 -3.4e+38 -3.4e+38 -3.4e+38 -3.4e+38 -3.4e+38 -3.4e+38 -3.4e+38 -3.4e+38 -3.4e+38 -3.4e+38 -3.4e+38 -3.4e+38 -3.4e+38 -3.4e+38 -3.4e+38 -3.4e+38 763.59375 880.27001953125 2572.22998046875 4199.33984375 4020.47998046875 3906.36010742188 3769.65991210938 4020.97998046875 3940.36010742188 3461.17993164062 2828.57006835938 2230.06005859375 1042.82995605469 709.789978027344 460.880004882812 318.160003662109 273.670013427734 237.460006713867 178.300003051758 150.190002441406 131.899993896484 107.610000610352 87.7399978637695 78.0199966430664 78.120002746582 151.820007324219 336.529998779297 402.570007324219 259.709991455078 410.700012207031 425.660003662109 418.029998779297 385.730010986328 336.589996337891 344.559997558594 341.450012207031 304.690002441406 313.579986572266 371.929992675781 409.720001220703 417.149993896484 440.920013427734 498.519989013672 593.059997558594 582.960021972656 649.900024414062 845.739990234375 940.539978027344 843.640014648438 885.25 915.450012207031 952.580017089844 1037.81994628906 944.489990234375 572.580017089844 487.769989013672 328.899993896484 274.119995117188 90.6202545166016 -3.4e+38 -3.4e+38 -3.4e+38 -3.4e+38 -3.4e+38 -3.4e+38 -3.4e+38 -3.4e+38 -3.4e+38 -3.4e+38 -3.4e+38 -3.4e+38 -3.4e+38 -3.4e+38
-3.4e+38 -3.4e+38 -3.4e+38 -3.4e+38 -3.4e+38 -3.4e+38 -3.4e+38 -3.4e+38 -3.4e+38 -3.4e+38 -3.4e+38 -3.4e+38 -3.4e+38 -3.4e+38 -3.4e+38 -3.4e+38 -3.4e+38 -3.4e+38 -3.4e+38 -3.4e+38 -3.4e+38 -3.4e+38 -3.4e+38 -3.4e+38 -3.4e+38 -3.4e+38 -3.4e+38 -3.4e+38 -3.4e+38 -3.4e+38 -3.4e+38 -3.4e+38 -3.4e+38 -3.4e+38 -3.4e+38 -3.4e+38 -3.4e+38 -3.4e+38 -3.4e+38 -3.4e+38 -3.4e+38 -3.4e+38 -3.4e+38 -3.4e+38 -3.4e+38 -3.4e+38 -3.4e+38 -3.4e+38 -3.4e+38 1263.55883789062 1085.25 2691.2900390625 3826.05004882812 4465.72998046875 4281.14013671875 4096.14013671875 4286.169921875 3770.52001953125 3330.9599609375 3187.94995117188 2001.76000976562 1294.96997070312 734.330017089844 366.290008544922 274.480010986328 248.830001831055 234.330001831055 165.979995727539 143.660003662109 128.839996337891 106.5 88.0299987792969 78.0500030517578 80.2200012207031 196.539993286133 341.399993896484 329.589996337891 371.140014648438 524.739990234375 360.799987792969 313.920013427734 316.880004882812 313.619995117188 329.820007324219 310.309997558594 293.239990234375 324.109985351562 339.769989013672 412.790008544922 441.630004882812 448.260009765625 457.709991455078 533.150024414062 619.590026855469 646.700012207031 678.179992675781 1066.66003417969 988.960021972656 913.830017089844 990.830017089844 1112.72998046875 1124.92004394531 810.580017089844 622.919982910156 359.600006103516 306.670013427734 139.220001220703 9.5357141494751 -3.4e+38 -3.4e+38 -3.4e+38 -3.4e+38 -3.4e+38 -3.4e+38 -3.4e+38 -3.4e+38 -3.4e+38 -3.4e+38 -3.4e+38 -3.4e+38 -3.4e+38 -3.4e+38
-3.4e+38 -3.4e+38 -3.4e+38 -3.4e+38 -3.4e+38 -3.4e+38 -3.4e+38 -3.4e+38 -3.4e+38 -3.4e+38 -3.4e+38 -3.4e+38 -3.4e+38 -3.4e+38 -3.4e+38 -3.4e+38 -3.4e+38 -3.4e+38 -3.4e+38 -3.4e+38 -3.4e+38 -3.4e+38 -3.4e+38 -3.4e+38 -3.4e+38 -3.4e+38 -3.4e+38 -3.4e+38 -3.4e+38 -3.4e+38 -3.4e+38 -3.4e+38 -3.4e+38 -3.4e+38 -3.4e+38 -3.4e+38 -3.4e+38 -3.4e+38 -3.4e+38 -3.4e+38 -3.4e+38 -3.4e+38 -3.4e+38 -3.4e+38 -3.4e+38 -3.4e+38 -3.4e+38 -3.4e+38 -3.4e+38 1421.72412109375 1256.23999023438 2537.6298828125 3041.89990234375 4356.5 4640.02978515625 4664.72998046875 4208.2001953125 3878.9599609375 3610.40991210938 3512.38989257812 1478.59997558594 778.090026855469 524.359985351562 280.660003662109 240.009994506836 220.800003051758 202.929992675781 174.550003051758 145.960006713867 123.029998779297 113.019996643066 98.3199996948242 78.3600006103516 90.3499984741211 161.600006103516 216.410003662109 226.979995727539 465 538.200012207031 389.179992675781 312.339996337891 317.420013427734 303.480010986328 306.670013427734 300.570007324219 331.109985351562 391.720001220703 475.480010986328 506.170013427734 540.630004882812 553.669982910156 497.399993896484 540.109985351562 742.090026855469 664.190002441406 647.400024414062 1007.36999511719 1027.60998535156 1029.71997070312 1159.56005859375 1300.09997558594 811.760009765625 572.359985351562 720.619995117188 900.530029296875 453.141418457031 31.1311473846436 1.83333337306976 -3.4e+38 -3.4e+38 -3.4e+38 -3.4e+38 -3.4e+38 -3.4e+38 -3.4e+38 -3.4e+38 -3.4e+38 -3.4e+38 -3.4e+38 -3.4e+38 -3.4e+38 -3.4e+38
-3.4e+38 -3.4e+38 -3.4e+38 -3.4e+38 -3.4e+38 -3.4e+38 -3.4e+38 -3.4e+38 -3.4e+38 -3.4e+38 -3.4e+38 -3.4e+38 -3.4e+38 -3.4e+38 -3.4e+38 -3.4e+38 -3.4e+38 -3.4e+38 -3.4e+38 -3.4e+38 -3.4e+38 -3.4e+38 -3.4e+38 -3.4e+38 -3.4e+38 -3.4e+38 -3.4e+38 -3.4e+38 -3.4e+38 -3.4e+38 -3.4e+38 -3.4e+38 -3.4e+38 -3.4e+38 -3.4e+38 -3.4e+38 -3.4e+38 -3.4e+38 -3.4e+38 -3.4e+38 -3.4e+38 -3.4e+38 -3.4e+38 -3.4e+38 -3.4e+38 -3.4e+38 -3.4e+38 -3.4e+38 1 1258.57141113281 1423.68994140625 2246.84008789062 2915.96997070312 3812.25 4706.35009765625 4738.89013671875 4485.0498046875 3821.65991210938 3801.68994140625 2825.1201171875 851.27001953125 546.340026855469 333.260009765625 221.460006713867 202.559997558594 205.419998168945 197.320007324219 172.669998168945 145.960006713867 123.620002746582 114.849998474121 99.3099975585938 77.7300033569336 78.4100036621094 142.619995117188 176.919998168945 187.649993896484 364.970001220703 513.380004882812 417.859985351562 334.619995117188 314.440002441406 264.100006103516 293.170013427734 331.290008544922 326.019989013672 347.299987792969 403.459991455078 505.230010986328 558.77001953125 587.580017089844 634.809997558594 621.75 536.289978027344 591.419982910156 668.72998046875 993.400024414062 1287.93005371094 1116.61999511719 882.219970703125 865.039978027344 423.377563476562 262.666656494141 239.818176269531 173.570007324219 45.6666679382324 -3.4e+38 -3.4e+38 -3.4e+38 -3.4e+38 -3.4e+38 -3.4e+38 -3.4e+38 -3.4e+38 -3.4e+38 -3.4e+38 -3.4e+38 -3.4e+38 -3.4e+38 -3.4e+38 -3.4e+38 -3.4e+38
-3.4e+38 -3.4e+38 -3.4e+38 -3.4e+38 -3.4e+38 -3.4e+38 -3.4e+38 -3.4e+38 -3.4e+38 -3.4e+38 -3.4e+38 -3.4e+38 -3.4e+38 -3.4e+38 -3.4e+38 -3.4e+38 -3.4e+38 -3.4e+38 -3.4e+38 -3.4e+38 -3.4e+38 -3.4e+38 -3.4e+38 -3.4e+38 -3.4e+38 -3.4e+38 -3.4e+38 -3.4e+38 -3.4e+38 -3.4e+38 -3.4e+38 -3.4e+38 -3.4e+38 -3.4e+38 -3.4e+38 -3.4e+38 -3.4e+38 -3.4e+38 -3.4e+38 -3.4e+38 -3.4e+38 -3.4e+38 -3.4e+38 -3.4e+38 -3.4e+38 -3.4e+38 -3.4e+38 -3.4e+38 250.836730957031 1150.69995117188 1538.10998535156 2551.9599609375 2685.64990234375 2761.97998046875 4628.240234375 4378.5400390625 4058.35009765625 3840.5400390625 3773.330078125 3329.21997070312 680.210021972656 330.179992675781 238.990005493164 219.539993286133 222.490005493164 206.570007324219 186.869995117188 166.770004272461 139.75 123.910003662109 110.680000305176 94.5199966430664 79.2200012207031 71.2799987792969 68.7099990844727 103.629997253418 203.669998168945 279.049987792969 455.589996337891 398.459991455078 320.720001220703 288.170013427734 269.059997558594 306.790008544922 336.459991455078 411.190002441406 570.77001953125 491.160003662109 523.239990234375 555.559997558594 598.960021972656 657.97998046875 706.260009765625 578.580017089844 570.320007324219 764.539978027344 886.77001953125 749.450012207031 771.099975585938 922.032287597656 459.405395507812 240.066665649414 116.583335876465 155.333328247070 -3.4e+38 1 -3.4e+38 -3.4e+38 -3.4e+38 -3.4e+38 -3.4e+38 -3.4e+38 -3.4e+38 -3.4e+38 -3.4e+38 -3.4e+38 -3.4e+38 -3.4e+38 -3.4e+38 -3.4e+38 -3.4e+38 -3.4e+38
-3.4e+38 -3.4e+38 -3.4e+38 -3.4e+38 -3.4e+38 -3.4e+38 -3.4e+38 -3.4e+38 -3.4e+38 -3.4e+38 -3.4e+38 -3.4e+38 -3.4e+38 -3.4e+38 -3.4e+38 -3.4e+38 -3.4e+38 -3.4e+38 -3.4e+38 -3.4e+38 -3.4e+38 -3.4e+38 -3.4e+38 -3.4e+38 -3.4e+38 -3.4e+38 -3.4e+38 -3.4e+38 -3.4e+38 -3.4e+38 -3.4e+38 -3.4e+38 -3.4e+38 -3.4e+38 -3.4e+38 -3.4e+38 -3.4e+38 -3.4e+38 -3.4e+38 -3.4e+38 -3.4e+38 -3.4e+38 -3.4e+38 -3.4e+38 -3.4e+38 -3.4e+38 -3.4e+38 -3.4e+38 561.333312988281 929 1438.82995605469 2449.19995117188 2626.23999023438 2889.71997070312 4526.89990234375 4242.830078125 3968.69995117188 3600.38989257812 3490.5400390625 1878.06994628906 574.640014648438 355.010009765625 225.589996337891 203.5 201.600006103516 180.490005493164 153.630004882812 137.270004272461 123.290000915527 114.040000915527 102.690002441406 85.379997253418 75.5699996948242 67.1800003051758 64.6999969482422 116.309997558594 168.380004882812 208.199996948242 296.059997558594 322.470001220703 307.190002441406 271.920013427734 324.600006103516 372.649993896484 392.519989013672 376.859985351562 600.369995117188 657.320007324219 696.409973144531 622.25 605.150024414062 632.900024414062 628.760009765625 682.289978027344 783.070007324219 867.359985351562 643.940002441406 676.539489746094 625.44287109375 258.785705566406 -3.4e+38 -3.4e+38 -3.4e+38 -3.4e+38 -3.4e+38 -3.4e+38 -3.4e+38 -3.4e+38 -3.4e+38 -3.4e+38 -3.4e+38 -3.4e+38 -3.4e+38 -3.4e+38 -3.4e+38 -3.4e+38 -3.4e+38 -3.4e+38 -3.4e+38 -3.4e+38 -3.4e+38 -3.4e+38
-3.4e+38 -3.4e+38 -3.4e+38 -3.4e+38 -3.4e+38 -3.4e+38 -3.4e+38 -3.4e+38 -3.4e+38 -3.4e+38 -3.4e+38 -3.4e+38 -3.4e+38 -3.4e+38 -3.4e+38 -3.4e+38 -3.4e+38 -3.4e+38 -3.4e+38 -3.4e+38 -3.4e+38 -3.4e+38 -3.4e+38 -3.4e+38 -3.4e+38 -3.4e+38 -3.4e+38 -3.4e+38 -3.4e+38 -3.4e+38 -3.4e+38 -3.4e+38 -3.4e+38 -3.4e+38 -3.4e+38 -3.4e+38 -3.4e+38 -3.4e+38 -3.4e+38 -3.4e+38 -3.4e+38 -3.4e+38 -3.4e+38 -3.4e+38 -3.4e+38 -3.4e+38 -3.4e+38 -3.4e+38 1184.38000488281 1404.66003417969 1589.7900390625 2878.46997070312 3349.63989257812 4071.07006835938 3984.4599609375 4080.22998046875 4524.81005859375 3909.28002929688 3004.38989257812 1002.20001220703 942.840026855469 473.480010986328 218.330001831055 196.770004272461 186.869995117188 173.470001220703 158.5 139.970001220703 124.269996643066 119.330001831055 101.269996643066 89.0899963378906 79.9300003051758 75.120002746582 66.6600036621094 76.3600006103516 154.449996948242 188.990005493164 205.949996948242 319.970001220703 304.140014648438 291.380004882812 322.279998779297 398.970001220703 613.679992675781 533.22998046875 580.219970703125 714.380004882812 756.450012207031 864.549987792969 856.150024414062 898.409973144531 810.109985351562 491.299987792969 346.269989013672 396.402435302734 208.043472290039 1 -3.4e+38 -3.4e+38 -3.4e+38 -3.4e+38 -3.4e+38 -3.4e+38 -3.4e+38 -3.4e+38 -3.4e+38 -3.4e+38 -3.4e+38 -3.4e+38 -3.4e+38 -3.4e+38 -3.4e+38 -3.4e+38 -3.4e+38 -3.4e+38 -3.4e+38 -3.4e+38 -3.4e+38 -3.4e+38 -3.4e+38 -3.4e+38
-3.4e+38 -3.4e+38 -3.4e+38 -3.4e+38 -3.4e+38 -3.4e+38 -3.4e+38 -3.4e+38 -3.4e+38 -3.4e+38 -3.4e+38 -3.4e+38 -3.4e+38 -3.4e+38 -3.4e+38 -3.4e+38 -3.4e+38 -3.4e+38 -3.4e+38 -3.4e+38 -3.4e+38 -3.4e+38 -3.4e+38 -3.4e+38 -3.4e+38 -3.4e+38 -3.4e+38 -3.4e+38 -3.4e+38 -3.4e+38 -3.4e+38 -3.4e+38 -3.4e+38 -3.4e+38 -3.4e+38 -3.4e+38 -3.4e+38 -3.4e+38 -3.4e+38 -3.4e+38 -3.4e+38 -3.4e+38 -3.4e+38 -3.4e+38 -3.4e+38 -3.4e+38 -3.4e+38 -3.4e+38 1574.66076660156 2175.21997070312 2123.11010742188 3257.56005859375 4281.240234375 3974.84008789062 3600.48999023438 4045.830078125 4378.22998046875 3610.27001953125 2174.96997070312 926.130004882812 994.609985351562 379.769989013672 246.960006713867 210.820007324219 191.080001831055 163.699996948242 144.080001831055 133.139999389648 125.790000915527 105.309997558594 110.519996643066 94.6699981689453 82.5299987792969 70.620002746582 65.3899993896484 65.6100006103516 154.470001220703 256.410003662109 243.009994506836 306.369995117188 272.179992675781 369.200012207031 553.309997558594 481.859985351562 585.869995117188 779.789978027344 753.530029296875 784.669982910156 872.539978027344 1080.07995605469 854.969970703125 625.299987792969 525.260009765625 187.139999389648 49.3728828430176 160.142852783203 -3.4e+38 -3.4e+38 -3.4e+38 -3.4e+38 -3.4e+38 -3.4e+38 -3.4e+38 -3.4e+38 -3.4e+38 -3.4e+38 -3.4e+38 -3.4e+38 -3.4e+38 -3.4e+38 -3.4e+38 -3.4e+38 -3.4e+38 -3.4e+38 -3.4e+38 -3.4e+38 -3.4e+38 -3.4e+38 -3.4e+38 -3.4e+38 -3.4e+38 -3.4e+38
-3.4e+38 -3.4e+38 -3.4e+38 -3.4e+38 -3.4e+38 -3.4e+38 -3.4e+38 -3.4e+38 -3.4e+38 -3.4e+38 -3.4e+38 -3.4e+38 -3.4e+38 -3.4e+38 -3.4e+38 -3.4e+38 -3.4e+38 -3.4e+38 -3.4e+38 -3.4e+38 -3.4e+38 -3.4e+38 -3.4e+38 -3.4e+38 -3.4e+38 -3.4e+38 -3.4e+38 -3.4e+38 -3.4e+38 -3.4e+38 -3.4e+38 -3.4e+38 -3.4e+38 -3.4e+38 -3.4e+38 -3.4e+38 -3.4e+38 -3.4e+38 -3.4e+38 -3.4e+38 -3.4e+38 -3.4e+38 -3.4e+38 -3.4e+38 -3.4e+38 -3.4e+38 -3.4e+38 -3.4e+38 1018.43243408203 1802.41003417969 2613.05004882812 3836.01000976562 4418.33984375 4229.7900390625 3930.19995117188 4114.9501953125 4157.58984375 3061.46997070312 1674.23999023438 1121.05004882812 611.679992675781 348.230010986328 267.239990234375 227.690002441406 198.490005493164 168.330001831055 143.070007324219 128.139999389648 112.620002746582 96.7300033569336 84.2600021362305 74.6100006103516 69.25 65.3099975585938 78.9300003051758 110.790000915527 106.930000305176 257.910003662109 257.299987792969 253.830001831055 240.470001220703 392.519989013672 531.070007324219 623.549987792969 686.359985351562 867.010009765625 1001.88000488281 831 905.960021972656 910.890014648438 801.789978027344 873.080017089844 362.593414306641 161.677963256836 -3.4e+38 -3.4e+38 -3.4e+38 -3.4e+38 -3.4e+38 -3.4e+38 -3.4e+38 -3.4e+38 -3.4e+38 -3.4e+38 -3.4e+38 -3.4e+38 -3.4e+38 -3.4e+38 -3.4e+38 -3.4e+38 -3.4e+38 -3.4e+38 -3.4e+38 -3.4e+38 -3.4e+38 -3.4e+38 -3.4e+38 -3.4e+38 -3.4e+38 -3.4e+38 -3.4e+38 -3.4e+38
-3.4e+38 -3.4e+38 -3.4e+38 -3.4e+38 -3.4e+38 -3.4e+38 -3.4e+38 -3.4e+38 -3.4e+38 -3.4e+38 -3.4e+38 -3.4e+38 -3.4e+38 -3.4e+38 -3.4e+38 -3.4e+38 -3.4e+38 -3.4e+38 -3.4e+38 -3.4e+38 -3.4e+38 -3.4e+38 -3.4e+38 -3.4e+38 -3.4e+38 -3.4e+38 -3.4e+38 -3.4e+38 -3.4e+38 -3.4e+38 -3.4e+38 -3.4e+38 -3.4e+38 -3.4e+38 -3.4e+38 -3.4e+38 -3.4e+38 -3.4e+38 -3.4e+38 -3.4e+38 -3.4e+38 -3.4e+38 -3.4e+38 -3.4e+38 -3.4e+38 -3.4e+38 -3.4e+38 -3.4e+38 633.105285644531 1405.69995117188 2455.080078125 3915.4599609375 4357.68017578125 4298.259765625 4034.21997070312 4540.830078125 3774.76000976562 2441.27001953125 1859.53002929688 1124.66003417969 573.799987792969 317.730010986328 252.789993286133 221.809997558594 190.839996337891 165.389999389648 145.440002441406 124.540000915527 102.699996948242 91.7600021362305 78.1399993896484 67.5199966430664 64.3499984741211 58 66.5199966430664 160.449996948242 126.339996337891 253.669998168945 256.549987792969 242.490005493164 221.740005493164 306.070007324219 408.829986572266 507.399993896484 600.859985351562 788.450012207031 986.030029296875 960.099975585938 861.72998046875 877.47998046875 906.150024414062 791.140014648438 130.683334350586 -3.4e+38 -3.4e+38 -3.4e+38 -3.4e+38 -3.4e+38 -3.4e+38 -3.4e+38 -3.4e+38 -3.4e+38 -3.4e+38 -3.4e+38 -3.4e+38 -3.4e+38 -3.4e+38 -3.4e+38 -3.4e+38 -3.4e+38 -3.4e+38 -3.4e+38 -3.4e+38 -3.4e+38 -3.4e+38 -3.4e+38 -3.4e+38 -3.4e+38 -3.4e+38 -3.4e+38 -3.4e+38 -3.4e+38
-3.4e+38 -3.4e+38 -3.4e+38 -3.4e+38 -3.4e+38 -3.4e+38 -3.4e+38 -3.4e+38 -3.4e+38 -3.4e+38 -3.4e+38 -3.4e+38 -3.4e+38 -3.4e+38 -3.4e+38 -3.4e+38 -3.4e+38 -3.4e+38 -3.4e+38 -3.4e+38 -3.4e+38 -3.4e+38 -3.4e+38 -3.4e+38 -3.4e+38 -3.4e+38 -3.4e+38 -3.4e+38 -3.4e+38 -3.4e+38 -3.4e+38 -3.4e+38 -3.4e+38 -3.4e+38 -3.4e+38 -3.4e+38 -3.4e+38 -3.4e+38 -3.4e+38 -3.4e+38 -3.4e+38 -3.4e+38 -3.4e+38 -3.4e+38 -3.4e+38 -3.4e+38 -3.4e+38 -3.4e+38 598.621643066406 1041.10998535156 2459.38989257812 3868.39990234375 4624.7998046875 4108.02978515625 3629.080078125 4441.2001953125 4224.9599609375 2794.2099609375 1731.93005371094 1133.48999023438 485.510009765625 268.149993896484 211.660003662109 196.179992675781 178.210006713867 156.710006713867 132.350006103516 115.769996643066 97.5 82.4100036621094 71.75 64.7799987792969 59.4700012207031 53.3199996948242 56.5699996948242 122.669998168945 108.889999389648 144.279998779297 285.690002441406 281.510009765625 226.550003051758 454.390014648438 600.789978027344 732.619995117188 772.299987792969 931.530029296875 980.469970703125 880.97998046875 799.309997558594 843.460021972656 890.299987792969 548.469970703125 33.7750015258789 -3.4e+38 -3.4e+38 -3.4e+38 -3.4e+38 -3.4e+38 -3.4e+38 -3.4e+38 -3.4e+38 -3.4e+38 -3.4e+38 -3.4e+38 -3.4e+38 -3.4e+38 -3.4e+38 -3.4e+38 -3.4e+38 -3.4e+38 -3.4e+38 -3.4e+38 -3.4e+38 -3.4e+38 -3.4e+38 -3.4e+38 -3.4e+38 -3.4e+38 -3.4e+38 -3.4e+38 -3.4e+38 -3.4e+38
